2.1158624e+01   2.2605830e+01   2.3006850e+01   2.3366025e+01   2.3687325e+01   2.3974638e+01   2.4231991e+01   2.3463868e+01   2.3675251e+01   2.3871726e+01   2.4059371e+01   2.4244347e+01   2.4432447e+01   2.6628073e+01   2.6833554e+01   3.2048790e+01   3.2271416e+01   3.8497543e+01   3.8722371e+01   4.4941123e+01   4.5149412e+01   5.1343525e+01   5.1520571e+01   5.7678394e+01   5.7815634e+01   6.3931500e+01   6.4025820e+01   7.1098911e+01   7.1151420e+01   8.0184354e+01   8.0198874e+01   8.9196174e+01   8.9177508e+01   9.4143985e+01   9.4096410e+01   9.9035296e+01   9.8960724e+01   1.0187246e+02   1.0176987e+02   9.7652144e+01   9.7518291e+01   8.9367295e+01   8.9198204e+01   8.8010228e+01   8.7802763e+01   8.6575437e+01   8.6328286e+01   8.7061363e+01   8.6774443e+01   9.2470554e+01   9.2149891e+01   1.0081440e+02   1.0046660e+02   1.0910986e+02   1.0874854e+02   1.1638847e+02   1.1603684e+02   1.2070228e+02   1.2039377e+02   1.2211885e+02   1.2188025e+02   1.2467445e+02   1.2449460e+02   1.3133320e+02   1.3118355e+02   1.4104055e+02   1.4090064e+02   1.5176243e+02   1.5162730e+02   1.6350030e+02   1.6339077e+02   1.7831266e+02   1.7825732e+02   1.9321685e+02   1.9317151e+02   2.0710627e+02   2.0700000e+02   2.1800000e+02   2.1800000e+02   2.2100000e+02   2.2100000e+02   2.1700000e+02   2.1714258e+02   2.1326780e+02   2.1338091e+02   2.1547826e+02   2.1555808e+02   2.1962150e+02   2.1967236e+02   2.2071794e+02   2.2077020e+02   2.2384367e+02   2.2393947e+02   2.3004326e+02   2.3014341e+02   2.3323368e+02   2.3331127e+02   2.3737490e+02   2.3742333e+02   2.4345449e+02   2.4346586e+02   2.4645495e+02   2.4641973e+02   2.4335884e+02   2.4327169e+02   2.4715867e+02   2.4702176e+02   2.5586547e+02   2.5569864e+02   2.6153599e+02   2.6139479e+02   2.7027675e+02   2.7017839e+02   2.8609921e+02   2.8605373e+02   3.0700000e+02   3.0700000e+02   3.2700000e+02   3.2700000e+02   3.4600000e+02   3.4600000e+02   3.6700000e+02   3.6700000e+02   3.8900000e+02   3.8900000e+02   4.1100000e+02   4.1100000e+02   4.3300000e+02   4.3300000e+02   4.5400000e+02   4.5400000e+02   4.7400000e+02   4.7400000e+02   4.9100000e+02   4.9100000e+02   5.0900000e+02   5.0900000e+02   5.2800000e+02   5.2800000e+02   5.4300000e+02   5.4300000e+02   5.5300000e+02   5.5300000e+02   5.6100000e+02   5.6100000e+02   5.7300000e+02   5.7300000e+02   5.8700000e+02   5.8700000e+02   5.9900000e+02   5.9900000e+02   6.0700000e+02   6.0700000e+02   6.1000000e+02   6.1000000e+02   6.1000000e+02   6.1000000e+02   6.0500000e+02   6.0500000e+02   5.9600000e+02   5.9600000e+02   5.8700000e+02   5.8700000e+02   5.7800000e+02   5.7800000e+02   5.7300000e+02   5.7300000e+02   5.7100000e+02   5.7100000e+02   5.6800000e+02   5.6800000e+02   5.6300000e+02   5.6301569e+02   5.5900000e+02   5.5900000e+02   5.5500000e+02   5.5500000e+02   5.5100000e+02   5.5100000e+02   5.4700000e+02   5.4700000e+02   5.4200000e+02   5.4200000e+02   5.3703906e+02   5.3704134e+02   5.3700000e+02
2.1245854e+01   2.2642655e+01   2.3002313e+01   2.3324860e+01   2.3611756e+01   2.3865385e+01   2.4088937e+01   2.3286545e+01   2.3463386e+01   2.3625817e+01   2.3781324e+01   2.3937981e+01   2.4103844e+01   2.6285192e+01   2.6485225e+01   3.1703372e+01   3.1935698e+01   3.8175948e+01   3.8417223e+01   4.4652919e+01   4.4877287e+01   5.1085760e+01   5.1274918e+01   5.7442452e+01   5.7586884e+01   6.3707620e+01   6.3804722e+01   7.0878836e+01   7.0930981e+01   7.9962610e+01   7.9975327e+01   8.8970885e+01   8.8951022e+01   9.3917271e+01   9.3870801e+01   9.8812326e+01   9.8742018e+01   1.0165954e+02   1.0156407e+02   9.7454496e+01   9.7329523e+01   8.9187852e+01   8.9028313e+01   8.7849966e+01   8.7652080e+01   8.6434366e+01   8.6196807e+01   8.6939932e+01   8.6664263e+01   9.2370550e+01   9.2062146e+01   1.0074045e+02   1.0040831e+02   1.0906933e+02   1.0872792e+02   1.1638938e+02   1.1605981e+02   1.2074561e+02   1.2045282e+02   1.2218581e+02   1.2194587e+02   1.2473078e+02   1.2453601e+02   1.3135610e+02   1.3118586e+02   1.4102071e+02   1.4085727e+02   1.5169398e+02   1.5153248e+02   1.6337940e+02   1.6324834e+02   1.7818889e+02   1.7816027e+02   1.9316053e+02   1.9313958e+02   2.0708770e+02   2.0700000e+02   2.1800000e+02   2.1800000e+02   2.2100000e+02   2.2100000e+02   2.1700000e+02   2.1715895e+02   2.1328917e+02   2.1339527e+02   2.1547846e+02   2.1553895e+02   2.1957735e+02   2.1959598e+02   2.2060180e+02   2.2061376e+02   2.2367165e+02   2.2378003e+02   2.2989854e+02   2.3000856e+02   2.3310459e+02   2.3318646e+02   2.3725539e+02   2.3731153e+02   2.4335253e+02   2.4337487e+02   2.4637530e+02   2.4635144e+02   2.4330194e+02   2.4322640e+02   2.4712555e+02   2.4700145e+02   2.5585803e+02   2.5570159e+02   2.6154090e+02   2.6138508e+02   2.7024012e+02   2.7011316e+02   2.8600000e+02   2.8600000e+02   3.0700000e+02   3.0700000e+02   3.2700000e+02   3.2700000e+02   3.4600000e+02   3.4600000e+02   3.6700000e+02   3.6700000e+02   3.8900000e+02   3.8900000e+02   4.1100000e+02   4.1100000e+02   4.3300000e+02   4.3300000e+02   4.5400000e+02   4.5400000e+02   4.7400000e+02   4.7400000e+02   4.9100000e+02   4.9100000e+02   5.0900000e+02   5.0900000e+02   5.2800000e+02   5.2800000e+02   5.4300000e+02   5.4300000e+02   5.5300000e+02   5.5300000e+02   5.6100000e+02   5.6100000e+02   5.7300000e+02   5.7300000e+02   5.8700000e+02   5.8700000e+02   5.9900000e+02   5.9900000e+02   6.0700000e+02   6.0700000e+02   6.1000000e+02   6.1000000e+02   6.1000000e+02   6.1000000e+02   6.0500000e+02   6.0500000e+02   5.9600000e+02   5.9600000e+02   5.8700000e+02   5.8700000e+02   5.7800000e+02   5.7800000e+02   5.7300000e+02   5.7300000e+02   5.7100000e+02   5.7100000e+02   5.6800000e+02   5.6800000e+02   5.6300000e+02   5.6301237e+02   5.5900000e+02   5.5900000e+02   5.5500000e+02   5.5500000e+02   5.5100000e+02   5.5100000e+02   5.4700000e+02   5.4700000e+02   5.4200000e+02   5.4200000e+02   5.3704465e+02   5.3705559e+02   5.3703671e+02
2.3332806e+01   2.2682248e+01   2.3000516e+01   2.3284964e+01   2.3535079e+01   2.3751818e+01   2.3937448e+01   2.3095608e+01   2.3231561e+01   2.3352490e+01   2.3467603e+01   2.3588060e+01   2.3725370e+01   2.3889222e+01   2.4084375e+01   2.8309498e+01   2.8557626e+01   3.5818957e+01   3.6083304e+01   4.4341627e+01   4.4586654e+01   5.0812909e+01   5.1016550e+01   5.7195150e+01   5.7347432e+01   6.3473001e+01   6.3572296e+01   7.1646340e+01   7.1696699e+01   8.0725350e+01   8.0734525e+01   8.8726621e+01   8.8704055e+01   9.4668909e+01   9.4622815e+01   9.9566808e+01   9.9501124e+01   1.0142524e+02   1.0133800e+02   9.4237843e+01   9.4123050e+01   8.7991891e+01   8.7842870e+01   8.7674793e+01   8.7486861e+01   8.7278700e+01   8.7050458e+01   9.0802615e+01   9.0536219e+01   9.5252567e+01   9.4953423e+01   1.0164265e+02   1.0132251e+02   1.0999687e+02   1.0967006e+02   1.1834704e+02   1.1803305e+02   1.2273320e+02   1.2245179e+02   1.2619139e+02   1.2595227e+02   1.2973240e+02   1.2952815e+02   1.3333507e+02   1.3314873e+02   1.4096480e+02   1.4077936e+02   1.5458940e+02   1.5439485e+02   1.7120211e+02   1.7100000e+02   1.8300000e+02   1.8300000e+02   1.9509104e+02   1.9510419e+02   2.0707062e+02   2.0700000e+02   2.2000000e+02   2.2000000e+02   2.2400000e+02   2.2400000e+02   2.2000000e+02   2.2016972e+02   2.1630030e+02   2.1639816e+02   2.1846699e+02   2.1850753e+02   2.2151861e+02   2.2149803e+02   2.2144521e+02   2.2137697e+02   2.2141475e+02   2.2157607e+02   2.2572795e+02   2.2585335e+02   2.3195532e+02   2.3204025e+02   2.3911428e+02   2.3918052e+02   2.4523485e+02   2.4527144e+02   2.4828559e+02   2.4827446e+02   2.4823669e+02   2.4817205e+02   2.5508129e+02   2.5496611e+02   2.6182922e+02   2.6167446e+02   2.6450650e+02   2.6433012e+02   2.7815110e+02   2.7800000e+02   2.9300000e+02   2.9300000e+02   3.1200000e+02   3.1200000e+02   3.3200000e+02   3.3200000e+02   3.5200000e+02   3.5200000e+02   3.7500000e+02   3.7500000e+02   3.9800000e+02   3.9800000e+02   4.2000000e+02   4.2000000e+02   4.4200000e+02   4.4200000e+02   4.6300000e+02   4.6300000e+02   4.8100000e+02   4.8100000e+02   4.9700000e+02   4.9700000e+02   5.1400000e+02   5.1400000e+02   5.3100000e+02   5.3100000e+02   5.4700000e+02   5.4700000e+02   5.5900000e+02   5.5900000e+02   5.6700000e+02   5.6700000e+02   5.8100000e+02   5.8100000e+02   5.9200000e+02   5.9200000e+02   5.9900000e+02   5.9900000e+02   6.0300000e+02   6.0300000e+02   6.0400000e+02   6.0400000e+02   6.0400000e+02   6.0400000e+02   6.0300000e+02   6.0300000e+02   5.9800000e+02   5.9800000e+02   5.9000000e+02   5.9000000e+02   5.8300000e+02   5.8300000e+02   5.8000000e+02   5.8000000e+02   5.7700000e+02   5.7700000e+02   5.7200000e+02   5.7200000e+02   5.6700000e+02   5.6700000e+02   5.6000000e+02   5.6000000e+02   5.5500000e+02   5.5500000e+02   5.5100000e+02   5.5100000e+02   5.4700000e+02   5.4700000e+02   5.4200000e+02   5.4200000e+02   5.3704962e+02   5.3706527e+02   5.3505698e+02
2.3410291e+01   2.2718631e+01   2.2998172e+01   2.3245040e+01   2.3457401e+01   2.3634996e+01   2.3779063e+01   2.2892513e+01   2.2980382e+01   2.3050496e+01   2.3114260e+01   2.3186879e+01   2.3285999e+01   2.3427564e+01   2.3619215e+01   2.7858182e+01   2.8131964e+01   3.5424573e+01   3.5721021e+01   4.4009285e+01   4.4280427e+01   5.0528263e+01   5.0748817e+01   5.6939814e+01   5.7100289e+01   6.3230298e+01   6.3330728e+01   7.1403170e+01   7.1449774e+01   8.0473173e+01   8.0476404e+01   8.8462700e+01   8.8435277e+01   9.4397072e+01   9.4350378e+01   9.9296609e+01   9.9236044e+01   1.0116789e+02   1.0109045e+02   9.4001476e+01   9.3898566e+01   8.7779422e+01   8.7642092e+01   8.7485081e+01   8.7307441e+01   8.7108767e+01   8.6889218e+01   9.0649458e+01   9.0390708e+01   9.5114603e+01   9.4823459e+01   1.0152025e+02   1.0120787e+02   1.0989120e+02   1.0957403e+02   1.1826128e+02   1.1795779e+02   1.2266804e+02   1.2239540e+02   1.2614132e+02   1.2590504e+02   1.2968404e+02   1.2947467e+02   1.3327296e+02   1.3307482e+02   1.4087602e+02   1.4067160e+02   1.5445504e+02   1.5422102e+02   1.7100000e+02   1.7100000e+02   1.8300000e+02   1.8300000e+02   1.9506510e+02   1.9508115e+02   2.0705624e+02   2.0700000e+02   2.2000000e+02   2.2000000e+02   2.2400000e+02   2.2400000e+02   2.2000000e+02   2.2018531e+02   2.1630977e+02   2.1639572e+02   2.1844944e+02   2.1847119e+02   2.2145718e+02   2.2139794e+02   2.2126966e+02   2.2100000e+02   2.2100000e+02   2.2134719e+02   2.2554947e+02   2.2568718e+02   2.3178872e+02   2.3187058e+02   2.3894659e+02   2.3902703e+02   2.4510057e+02   2.4515604e+02   2.4818680e+02   2.4818976e+02   2.4816394e+02   2.4810945e+02   2.5502710e+02   2.5491810e+02   2.6178392e+02   2.6162615e+02   2.6444621e+02   2.6424339e+02   2.7800000e+02   2.7800000e+02   2.9300000e+02   2.9300000e+02   3.1200000e+02   3.1200000e+02   3.3200000e+02   3.3200000e+02   3.5200000e+02   3.5200000e+02   3.7500000e+02   3.7500000e+02   3.9800000e+02   3.9800000e+02   4.2000000e+02   4.2000000e+02   4.4200000e+02   4.4200000e+02   4.6300000e+02   4.6300000e+02   4.8100000e+02   4.8100000e+02   4.9700000e+02   4.9700000e+02   5.1400000e+02   5.1400000e+02   5.3100000e+02   5.3100000e+02   5.4700000e+02   5.4700000e+02   5.5900000e+02   5.5900000e+02   5.6700000e+02   5.6700000e+02   5.8100000e+02   5.8100000e+02   5.9200000e+02   5.9200000e+02   5.9900000e+02   5.9900000e+02   6.0300000e+02   6.0300000e+02   6.0400000e+02   6.0400000e+02   6.0400000e+02   6.0400000e+02   6.0300000e+02   6.0300000e+02   5.9800000e+02   5.9800000e+02   5.9000000e+02   5.9000000e+02   5.8300000e+02   5.8300000e+02   5.8000000e+02   5.8000000e+02   5.7700000e+02   5.7700000e+02   5.7200000e+02   5.7200000e+02   5.6700000e+02   5.6700000e+02   5.6000000e+02   5.6000000e+02   5.5500000e+02   5.5500000e+02   5.5100000e+02   5.5102986e+02   5.4702766e+02   5.4700000e+02   5.4200000e+02   5.4202855e+02   5.3705422e+02   5.3706452e+02   5.3505907e+02
2.7475531e+01   2.3749452e+01   2.3994108e+01   2.4205237e+01   2.4380106e+01   2.3517330e+01   2.3616926e+01   2.2680619e+01   2.2712564e+01   2.1720502e+01   2.1717713e+01   2.1724798e+01   2.1769778e+01   2.2881449e+01   2.3072425e+01   2.5337660e+01   2.5653064e+01   2.9991919e+01   3.0332584e+01   4.0659708e+01   4.0963142e+01   5.2236538e+01   5.2476278e+01   5.9680631e+01   5.9849241e+01   6.6982790e+01   6.7082793e+01   7.4151460e+01   7.4191658e+01   8.2206804e+01   8.2200856e+01   8.9178097e+01   8.9142915e+01   9.5099350e+01   9.5050655e+01   1.0099882e+02   1.0094419e+02   1.0088545e+02   1.0082003e+02   9.1744660e+01   9.1655926e+01   8.6550758e+01   8.6426605e+01   8.7281618e+01   8.7114677e+01   8.8925333e+01   8.8713804e+01   9.3480924e+01   9.3228050e+01   9.8957211e+01   9.8670753e+01   1.0837185e+02   1.0806417e+02   1.2275153e+02   1.2243923e+02   1.3213187e+02   1.3183445e+02   1.3255148e+02   1.3228615e+02   1.3403907e+02   1.3380817e+02   1.3658964e+02   1.3637921e+02   1.4217291e+02   1.4196719e+02   1.5275849e+02   1.5254161e+02   1.6830375e+02   1.6800000e+02   1.8300000e+02   1.8300000e+02   1.9100000e+02   1.9100000e+02   2.0005387e+02   2.0006471e+02   2.1303882e+02   2.1300000e+02   2.2200000e+02   2.2200000e+02   2.2400000e+02   2.2400000e+02   2.2010822e+02   2.2022741e+02   2.1732337e+02   2.1739113e+02   2.1942951e+02   2.1943623e+02   2.2340662e+02   2.2333251e+02   2.2320122e+02   2.2300000e+02   2.2100000e+02   2.2122895e+02   2.2340119e+02   2.2352282e+02   2.3160742e+02   2.3167240e+02   2.3974012e+02   2.3984607e+02   2.4695004e+02   2.4703098e+02   2.5208141e+02   2.5209949e+02   2.5608547e+02   2.5604035e+02   2.6196519e+02   2.6186089e+02   2.6872782e+02   2.6856566e+02   2.7737440e+02   2.7716298e+02   2.9000000e+02   2.9000000e+02   2.9900000e+02   2.9900000e+02   3.1500000e+02   3.1500000e+02   3.3200000e+02   3.3200000e+02   3.5200000e+02   3.5200000e+02   3.7800000e+02   3.7800000e+02   4.0300000e+02   4.0300000e+02   4.2800000e+02   4.2800000e+02   4.5000000e+02   4.5000000e+02   4.6900000e+02   4.6900000e+02   4.8600000e+02   4.8600000e+02   5.0000000e+02   5.0000000e+02   5.1300000e+02   5.1300000e+02   5.3200000e+02   5.3200000e+02   5.5000000e+02   5.5000000e+02   5.6400000e+02   5.6400000e+02   5.7500000e+02   5.7500000e+02   5.8300000e+02   5.8300000e+02   5.8700000e+02   5.8700000e+02   5.9400000e+02   5.9400000e+02   6.0000000e+02   6.0000000e+02   5.9900000e+02   5.9900000e+02   5.9900000e+02   5.9900000e+02   5.9900000e+02   5.9900000e+02   5.9400000e+02   5.9400000e+02   5.9200000e+02   5.9200000e+02   5.8900000e+02   5.8900000e+02   5.8700000e+02   5.8700000e+02   5.8200000e+02   5.8200000e+02   5.7600000e+02   5.7600000e+02   5.6800000e+02   5.6800000e+02   5.6000000e+02   5.6000000e+02   5.5400000e+02   5.5400000e+02   5.5004026e+02   5.5005761e+02   5.4504655e+02   5.4500000e+02   5.4100000e+02   5.4102567e+02   5.3703984e+02   5.3704512e+02   5.3504179e+02
2.7529583e+01   2.3775144e+01   2.3989188e+01   2.4167313e+01   2.4306069e+01   2.3402904e+01   2.3456309e+01   2.2466111e+01   2.2434334e+01   2.1366876e+01   2.1276926e+01   2.1190435e+01   2.1152493e+01   2.2221696e+01   2.2416927e+01   2.4732576e+01   2.5116337e+01   2.9523067e+01   2.9923308e+01   4.0299451e+01   4.0641510e+01   5.1944101e+01   5.2204746e+01   5.9422805e+01   5.9598877e+01   6.6734472e+01   6.6831823e+01   7.3893870e+01   7.3924196e+01   8.1927139e+01   8.1907724e+01   8.8871566e+01   8.8824545e+01   9.4772341e+01   9.4719690e+01   1.0066945e+02   1.0062205e+02   1.0057532e+02   1.0052519e+02   9.1466810e+01   9.1395364e+01   8.6306691e+01   8.6197555e+01   8.7065727e+01   8.6909917e+01   8.8729693e+01   8.8525372e+01   9.3297932e+01   9.3049015e+01   9.8780791e+01   9.8495966e+01   1.0819784e+02   1.0789042e+02   1.2257758e+02   1.2226519e+02   1.3195815e+02   1.3166227e+02   1.3238304e+02   1.3212429e+02   1.3388628e+02   1.3366453e+02   1.3645275e+02   1.3624525e+02   1.4203792e+02   1.4182817e+02   1.5261477e+02   1.5239822e+02   1.6818405e+02   1.6800000e+02   1.8300000e+02   1.8300000e+02   1.9100000e+02   1.9100000e+02   2.0005130e+02   2.0005062e+02   2.1300000e+02   2.1300000e+02   2.2200000e+02   2.2200000e+02   2.2400000e+02   2.2408284e+02   2.2017116e+02   2.2025839e+02   2.1733080e+02   2.1738155e+02   2.1940685e+02   2.1940322e+02   2.2336617e+02   2.2328990e+02   2.2316841e+02   2.2300000e+02   2.2100000e+02   2.2113310e+02   2.2326915e+02   2.2336113e+02   2.3141136e+02   2.3143710e+02   2.3946106e+02   2.3963275e+02   2.4678812e+02   2.4690207e+02   2.5197401e+02   2.5200693e+02   2.5600376e+02   2.5596690e+02   2.6189806e+02   2.6179809e+02   2.6866644e+02   2.6849987e+02   2.7728837e+02   2.7700000e+02   2.9000000e+02   2.9000000e+02   2.9900000e+02   2.9900000e+02   3.1500000e+02   3.1500000e+02   3.3200000e+02   3.3200000e+02   3.5200000e+02   3.5200000e+02   3.7800000e+02   3.7800000e+02   4.0300000e+02   4.0300000e+02   4.2800000e+02   4.2800000e+02   4.5000000e+02   4.5000000e+02   4.6900000e+02   4.6900000e+02   4.8600000e+02   4.8600000e+02   5.0000000e+02   5.0000000e+02   5.1300000e+02   5.1300000e+02   5.3200000e+02   5.3200000e+02   5.5000000e+02   5.5000000e+02   5.6400000e+02   5.6400000e+02   5.7500000e+02   5.7500000e+02   5.8300000e+02   5.8300000e+02   5.8700000e+02   5.8700000e+02   5.9400000e+02   5.9400000e+02   6.0000000e+02   6.0000000e+02   5.9900000e+02   5.9900000e+02   5.9900000e+02   5.9900000e+02   5.9900000e+02   5.9900000e+02   5.9400000e+02   5.9400000e+02   5.9200000e+02   5.9200000e+02   5.8900000e+02   5.8900000e+02   5.8700000e+02   5.8700000e+02   5.8200000e+02   5.8200000e+02   5.7600000e+02   5.7600000e+02   5.6800000e+02   5.6800000e+02   5.6000000e+02   5.6000000e+02   5.5400000e+02   5.5403933e+02   5.5006927e+02   5.5007939e+02   5.4506660e+02   5.4503400e+02   5.4100000e+02   5.4100000e+02   5.3700000e+02   5.3700000e+02   5.3500000e+02
2.5575405e+01   2.4797978e+01   2.4985806e+01   2.5134383e+01   2.5239559e+01   2.3297537e+01   2.3304910e+01   2.2258787e+01   2.2157342e+01   2.1001372e+01   2.0798310e+01   2.0573130e+01   2.0393716e+01   2.2401491e+01   2.2606624e+01   3.0024986e+01   3.0522245e+01   3.7026311e+01   3.7503718e+01   4.2938918e+01   4.3324973e+01   5.2659227e+01   5.2941416e+01   6.2172578e+01   6.2354619e+01   7.0490014e+01   7.0581795e+01   7.8633588e+01   7.8649731e+01   8.5635453e+01   8.5596964e+01   9.1541492e+01   9.1476965e+01   9.6411424e+01   9.6351904e+01   1.0130288e+02   1.0126487e+02   9.8234159e+01   9.8204216e+01   8.9167647e+01   8.9117658e+01   8.6048701e+01   8.5956827e+01   8.7839435e+01   8.7695198e+01   9.1523769e+01   9.1325649e+01   9.6102057e+01   9.5854879e+01   1.0058654e+02   1.0030007e+02   1.1099895e+02   1.1068720e+02   1.3236981e+02   1.3205172e+02   1.4673896e+02   1.4643916e+02   1.4515979e+02   1.4490735e+02   1.4368284e+02   1.4347655e+02   1.5127720e+02   1.5107674e+02   1.6287097e+02   1.6265844e+02   1.7043982e+02   1.7021807e+02   1.8500000e+02   1.8500000e+02   1.9700000e+02   1.9700000e+02   2.0100000e+02   2.0104473e+02   2.1006635e+02   2.1005210e+02   2.2200000e+02   2.2200000e+02   2.2700000e+02   2.2700000e+02   2.2405379e+02   2.2412588e+02   2.1920081e+02   2.1926981e+02   2.1632552e+02   2.1636303e+02   2.1837877e+02   2.1836928e+02   2.2333056e+02   2.2325812e+02   2.2314820e+02   2.2300000e+02   2.2200000e+02   2.2200000e+02   2.2514680e+02   2.2520681e+02   2.2920542e+02   2.2916919e+02   2.3500000e+02   2.3540135e+02   2.4363326e+02   2.4378079e+02   2.4887126e+02   2.4891608e+02   2.5292138e+02   2.5289106e+02   2.5682769e+02   2.5673258e+02   2.6460559e+02   2.6444463e+02   2.8224493e+02   2.8200000e+02   2.9900000e+02   2.9900000e+02   3.1000000e+02   3.1000000e+02   3.2300000e+02   3.2300000e+02   3.3400000e+02   3.3400000e+02   3.5200000e+02   3.5200000e+02   3.8100000e+02   3.8100000e+02   4.0600000e+02   4.0600000e+02   4.3100000e+02   4.3100000e+02   4.5100000e+02   4.5100000e+02   4.7200000e+02   4.7200000e+02   4.8700000e+02   4.8700000e+02   4.9500000e+02   4.9500000e+02   5.0900000e+02   5.0900000e+02   5.3100000e+02   5.3100000e+02   5.4900000e+02   5.4900000e+02   5.6000000e+02   5.6000000e+02   5.7400000e+02   5.7400000e+02   5.8200000e+02   5.8200000e+02   5.8000000e+02   5.8000000e+02   5.8600000e+02   5.8600000e+02   5.9300000e+02   5.9300000e+02   5.9200000e+02   5.9200000e+02   5.9200000e+02   5.9200000e+02   5.9000000e+02   5.9000000e+02   5.8600000e+02   5.8600000e+02   5.8900000e+02   5.8900000e+02   5.9000000e+02   5.9000000e+02   5.8500000e+02   5.8500000e+02   5.8200000e+02   5.8200000e+02   5.7600000e+02   5.7600000e+02   5.6700000e+02   5.6700000e+02   5.6000000e+02   5.6000000e+02   5.5600000e+02   5.5605394e+02   5.5208371e+02   5.5208970e+02   5.4807209e+02   5.4803509e+02   5.4400000e+02   5.4400000e+02   5.4200000e+02   5.4200000e+02   5.3800000e+02
2.5616751e+01   2.4821163e+01   2.4987298e+01   2.5110473e+01   2.5185860e+01   2.3208398e+01   2.3172614e+01   2.2072376e+01   2.1900515e+01   2.0648588e+01   2.0307442e+01   1.9875645e+01   1.9413352e+01   2.1349519e+01   2.1548695e+01   2.9204099e+01   2.9886957e+01   3.6521826e+01   3.7091919e+01   4.2593160e+01   4.3025847e+01   5.2392057e+01   5.2694724e+01   6.1937115e+01   6.2122631e+01   7.0254805e+01   7.0337388e+01   7.8374571e+01   7.8371305e+01   8.5333586e+01   8.5268829e+01   9.1186091e+01   9.1095997e+01   9.6010096e+01   9.5939248e+01   1.0089091e+02   1.0086600e+02   9.7857841e+01   9.7855476e+01   8.8847546e+01   8.8824490e+01   8.5779268e+01   8.5707210e+01   8.7605624e+01   8.7473292e+01   9.1310153e+01   9.1117011e+01   9.5895409e+01   9.5647504e+01   1.0037605e+02   1.0008430e+02   1.1077605e+02   1.1045555e+02   1.3212774e+02   1.3179797e+02   1.4647275e+02   1.4616131e+02   1.4487527e+02   1.4462809e+02   1.4342683e+02   1.4324726e+02   1.5106838e+02   1.5087918e+02   1.6267640e+02   1.6246042e+02   1.7023362e+02   1.7000000e+02   1.8500000e+02   1.8500000e+02   1.9700000e+02   1.9700000e+02   2.0104735e+02   2.0107821e+02   2.1008289e+02   2.1005709e+02   2.2200000e+02   2.2200000e+02   2.2700000e+02   2.2700000e+02   2.2405495e+02   2.2413169e+02   2.1920201e+02   2.1926015e+02   2.1630407e+02   2.1633192e+02   2.1834153e+02   2.1833019e+02   2.2329429e+02   2.2322944e+02   2.2313192e+02   2.2300000e+02   2.2200000e+02   2.2200000e+02   2.2507690e+02   2.2507951e+02   2.2900000e+02   2.2900000e+02   2.3500000e+02   2.3530511e+02   2.4352841e+02   2.4368218e+02   2.4877979e+02   2.4883039e+02   2.5284024e+02   2.5281390e+02   2.5675467e+02   2.5666458e+02   2.6454433e+02   2.6439375e+02   2.8221242e+02   2.8200000e+02   2.9900000e+02   2.9900000e+02   3.1000000e+02   3.1000000e+02   3.2300000e+02   3.2300000e+02   3.3400000e+02   3.3400000e+02   3.5200000e+02   3.5200000e+02   3.8100000e+02   3.8100000e+02   4.0600000e+02   4.0600000e+02   4.3100000e+02   4.3100000e+02   4.5100000e+02   4.5100000e+02   4.7200000e+02   4.7200000e+02   4.8700000e+02   4.8700000e+02   4.9500000e+02   4.9500000e+02   5.0900000e+02   5.0900000e+02   5.3100000e+02   5.3100000e+02   5.4900000e+02   5.4900000e+02   5.6000000e+02   5.6000000e+02   5.7400000e+02   5.7400000e+02   5.8200000e+02   5.8200000e+02   5.8000000e+02   5.8000000e+02   5.8600000e+02   5.8600000e+02   5.9300000e+02   5.9300000e+02   5.9200000e+02   5.9200000e+02   5.9200000e+02   5.9200000e+02   5.9000000e+02   5.9000000e+02   5.8600000e+02   5.8600000e+02   5.8900000e+02   5.8900000e+02   5.9000000e+02   5.9000000e+02   5.8500000e+02   5.8500000e+02   5.8200000e+02   5.8200000e+02   5.7600000e+02   5.7600000e+02   5.6700000e+02   5.6700000e+02   5.6000000e+02   5.6000000e+02   5.5600000e+02   5.5605847e+02   5.5208757e+02   5.5208923e+02   5.4806259e+02   5.4800000e+02   5.4400000e+02   5.4400000e+02   5.4200000e+02   5.4200000e+02   5.3800000e+02
2.8657453e+01   2.7848247e+01   2.7997370e+01   2.6099969e+01   2.6150630e+01   2.3143196e+01   2.3070388e+01   2.1923167e+01   2.1689388e+01   2.0350639e+01   1.9872828e+01   2.0174267e+01   1.9000000e+01   2.1000000e+01   2.1000000e+01   2.9321362e+01   3.0265254e+01   3.9047722e+01   3.9714543e+01   4.4281589e+01   4.4758802e+01   5.2154033e+01   5.2473928e+01   6.1724144e+01   6.1909624e+01   7.1034809e+01   7.1103982e+01   7.9121632e+01   7.9092942e+01   8.8024376e+01   8.7924294e+01   9.3803660e+01   9.3676448e+01   9.7559318e+01   9.7469700e+01   9.9421101e+01   9.9416000e+01   9.3441338e+01   9.3477919e+01   8.6508178e+01   8.6519121e+01   8.5502278e+01   8.5452760e+01   8.8368179e+01   8.8247824e+01   9.3092151e+01   9.2902455e+01   9.7680673e+01   9.7429312e+01   1.0315144e+02   1.0285063e+02   1.1253099e+02   1.1219685e+02   1.3285324e+02   1.3250519e+02   1.5315892e+02   1.5282411e+02   1.6151756e+02   1.6126853e+02   1.6611474e+02   1.6598289e+02   1.7083549e+02   1.7066083e+02   1.7746064e+02   1.7723883e+02   1.8500000e+02   1.8500000e+02   1.9500000e+02   1.9500000e+02   2.0500000e+02   2.0500000e+02   2.1107685e+02   2.1110349e+02   2.1809554e+02   2.1805898e+02   2.2500000e+02   2.2500000e+02   2.2700000e+02   2.2700000e+02   2.2300000e+02   2.2310956e+02   2.1918104e+02   2.1923032e+02   2.1826431e+02   2.1828467e+02   2.1729089e+02   2.1728127e+02   2.1925262e+02   2.1919903e+02   2.2211570e+02   2.2200000e+02   2.2500000e+02   2.2503150e+02   2.3104694e+02   2.3100000e+02   2.3200000e+02   2.3200000e+02   2.3300000e+02   2.3325638e+02   2.4045870e+02   2.4060537e+02   2.4570097e+02   2.4575107e+02   2.4976093e+02   2.4973526e+02   2.5567813e+02   2.5559235e+02   2.6847904e+02   2.6833923e+02   2.8717672e+02   2.8700000e+02   3.0200000e+02   3.0200000e+02   3.1500000e+02   3.1500000e+02   3.2600000e+02   3.2600000e+02   3.3600000e+02   3.3600000e+02   3.5700000e+02   3.5700000e+02   3.8500000e+02   3.8500000e+02   4.1000000e+02   4.1000000e+02   4.3200000e+02   4.3200000e+02   4.5100000e+02   4.5100000e+02   4.7000000e+02   4.7000000e+02   4.8400000e+02   4.8400000e+02   4.9400000e+02   4.9400000e+02   5.1000000e+02   5.1000000e+02   5.3000000e+02   5.3000000e+02   5.4400000e+02   5.4400000e+02   5.5200000e+02   5.5200000e+02   5.7000000e+02   5.7000000e+02   5.8200000e+02   5.8200000e+02   5.7800000e+02   5.7800000e+02   5.7900000e+02   5.7900000e+02   5.8600000e+02   5.8600000e+02   5.8600000e+02   5.8600000e+02   5.8400000e+02   5.8400000e+02   5.8300000e+02   5.8300000e+02   5.8002644e+02   5.8003052e+02   5.8402210e+02   5.8400000e+02   5.8400000e+02   5.8400000e+02   5.7800000e+02   5.7800000e+02   5.7400000e+02   5.7400000e+02   5.7000000e+02   5.7000000e+02   5.6200000e+02   5.6200000e+02   5.5700000e+02   5.5700000e+02   5.5400000e+02   5.5405810e+02   5.5108448e+02   5.5108268e+02   5.4805471e+02   5.4800000e+02   5.4600000e+02   5.4600000e+02   5.4300000e+02   5.4300000e+02   5.3900000e+02
2.8701070e+01   2.7882619e+01   2.8019590e+01   2.6107034e+01   2.6139131e+01   2.3108993e+01   2.3008201e+01   2.1826143e+01   2.1548888e+01   2.0157324e+01   1.9624553e+01   1.9914069e+01   1.9000000e+01   2.1000000e+01   2.1000000e+01   2.8781554e+01   2.9770563e+01   3.8654846e+01   3.9402502e+01   4.4025528e+01   4.4539347e+01   5.1956959e+01   5.2288397e+01   6.1541536e+01   6.1722541e+01   7.0836465e+01   7.0887713e+01   7.8880636e+01   7.8820082e+01   8.7712305e+01   8.7565928e+01   9.3393427e+01   9.3212426e+01   9.7046649e+01   9.6924718e+01   9.8873396e+01   9.8901158e+01   9.2979199e+01   9.3072284e+01   8.6153752e+01   8.6207141e+01   8.5223585e+01   8.5199001e+01   8.8132114e+01   8.8023278e+01   9.2873798e+01   9.2685603e+01   9.7461118e+01   9.7203248e+01   1.0291538e+02   1.0260145e+02   1.1226587e+02   1.1191342e+02   1.3254879e+02   1.3217616e+02   1.5279910e+02   1.5242388e+02   1.6106835e+02   1.6077932e+02   1.6574634e+02   1.6569966e+02   1.7059549e+02   1.7043363e+02   1.7723213e+02   1.7700000e+02   1.8500000e+02   1.8500000e+02   1.9500000e+02   1.9500000e+02   2.0500000e+02   2.0507895e+02   2.1112220e+02   2.1112899e+02   2.1810243e+02   2.1804894e+02   2.2500000e+02   2.2500000e+02   2.2700000e+02   2.2700000e+02   2.2300000e+02   2.2309114e+02   2.1914789e+02   2.1918143e+02   2.1820381e+02   2.1821719e+02   2.1722171e+02   2.1721702e+02   2.1920152e+02   2.1916399e+02   2.2209748e+02   2.2200000e+02   2.2500000e+02   2.2504472e+02   2.3104500e+02   2.3100000e+02   2.3200000e+02   2.3200000e+02   2.3300000e+02   2.3322736e+02   2.4041029e+02   2.4054524e+02   2.4563326e+02   2.4567763e+02   2.4968275e+02   2.4965371e+02   2.5559588e+02   2.5551327e+02   2.6840586e+02   2.6827301e+02   2.8712097e+02   2.8700000e+02   3.0200000e+02   3.0200000e+02   3.1500000e+02   3.1500000e+02   3.2600000e+02   3.2600000e+02   3.3600000e+02   3.3600000e+02   3.5700000e+02   3.5700000e+02   3.8500000e+02   3.8500000e+02   4.1000000e+02   4.1000000e+02   4.3200000e+02   4.3200000e+02   4.5100000e+02   4.5100000e+02   4.7000000e+02   4.7000000e+02   4.8400000e+02   4.8400000e+02   4.9400000e+02   4.9400000e+02   5.1000000e+02   5.1000000e+02   5.3000000e+02   5.3000000e+02   5.4400000e+02   5.4400000e+02   5.5200000e+02   5.5200000e+02   5.7000000e+02   5.7000000e+02   5.8200000e+02   5.8200000e+02   5.7800000e+02   5.7800000e+02   5.7900000e+02   5.7900000e+02   5.8600000e+02   5.8600000e+02   5.8600000e+02   5.8600000e+02   5.8400000e+02   5.8401647e+02   5.8300000e+02   5.8302903e+02   5.8004130e+02   5.8003937e+02   5.8402389e+02   5.8400000e+02   5.8400000e+02   5.8400000e+02   5.7800000e+02   5.7800000e+02   5.7400000e+02   5.7400000e+02   5.7000000e+02   5.7000000e+02   5.6200000e+02   5.6200000e+02   5.5700000e+02   5.5700000e+02   5.5400000e+02   5.5405517e+02   5.5107519e+02   5.5106793e+02   5.4803923e+02   5.4800000e+02   5.4600000e+02   5.4600000e+02   5.4300000e+02   5.4300000e+02   5.3900000e+02
3.3750617e+01   3.0927204e+01   3.1056989e+01   2.7135049e+01   2.7155469e+01   2.3111045e+01   2.2992913e+01   2.1789982e+01   2.1488242e+01   2.0070830e+01   1.9519570e+01   1.9823024e+01   1.9000000e+01   2.2000000e+01   2.2000000e+01   2.9000000e+01   3.0346166e+01   3.7364165e+01   3.8180657e+01   4.1844193e+01   4.2381757e+01   5.0811656e+01   5.1146809e+01   6.0396675e+01   6.0568160e+01   6.8666392e+01   6.8695443e+01   7.7658765e+01   7.7560100e+01   8.6404397e+01   8.6199300e+01   9.3957288e+01   9.3698768e+01   9.8455722e+01   9.8274738e+01   9.6212203e+01   9.6301620e+01   8.9467622e+01   8.9643876e+01   8.4792998e+01   8.4897711e+01   8.6951536e+01   8.6953159e+01   9.0903632e+01   9.0805005e+01   9.5659768e+01   9.5470647e+01   1.0024058e+02   9.9972796e+01   1.0567100e+02   1.0533948e+02   1.1698322e+02   1.1660769e+02   1.3421802e+02   1.3381720e+02   1.5540302e+02   1.5496957e+02   1.7051804e+02   1.7000000e+02   1.7835726e+02   1.7843954e+02   1.8337879e+02   1.8321167e+02   1.8900000e+02   1.8900000e+02   1.9507645e+02   1.9510679e+02   1.9811971e+02   1.9812638e+02   2.0413464e+02   2.0415924e+02   2.1316963e+02   2.1315346e+02   2.2110187e+02   2.2100000e+02   2.2800000e+02   2.2800000e+02   2.3000000e+02   2.3000000e+02   2.2700000e+02   2.2707275e+02   2.2510357e+02   2.2510932e+02   2.2611792e+02   2.2612421e+02   2.2512737e+02   2.2512920e+02   2.2413806e+02   2.2412356e+02   2.2407586e+02   2.2400000e+02   2.2604445e+02   2.2606803e+02   2.3605396e+02   2.3600000e+02   2.3800000e+02   2.3800000e+02   2.3300000e+02   2.3320841e+02   2.3737548e+02   2.3749767e+02   2.4457482e+02   2.4460907e+02   2.5160436e+02   2.5156659e+02   2.6150402e+02   2.6142461e+02   2.7532372e+02   2.7519158e+02   2.9000000e+02   2.9000000e+02   3.0200000e+02   3.0200000e+02   3.1400000e+02   3.1400000e+02   3.2300000e+02   3.2300000e+02   3.3500000e+02   3.3500000e+02   3.6200000e+02   3.6200000e+02   3.9000000e+02   3.9000000e+02   4.1400000e+02   4.1400000e+02   4.3300000e+02   4.3300000e+02   4.5000000e+02   4.5000000e+02   4.6700000e+02   4.6700000e+02   4.8300000e+02   4.8300000e+02   4.9700000e+02   4.9700000e+02   5.1000000e+02   5.1000000e+02   5.2300000e+02   5.2300000e+02   5.3300000e+02   5.3300000e+02   5.4500000e+02   5.4500000e+02   5.6600000e+02   5.6600000e+02   5.8000000e+02   5.8000000e+02   5.7500000e+02   5.7500000e+02   5.7200000e+02   5.7200000e+02   5.7900000e+02   5.7900000e+02   5.8000000e+02   5.8000000e+02   5.7701646e+02   5.7703228e+02   5.7703601e+02   5.7704082e+02   5.7803595e+02   5.7802737e+02   5.8000000e+02   5.8000000e+02   5.7900000e+02   5.7900000e+02   5.7400000e+02   5.7400000e+02   5.6900000e+02   5.6900000e+02   5.6400000e+02   5.6400000e+02   5.5800000e+02   5.5800000e+02   5.5200000e+02   5.5200000e+02   5.4902796e+02   5.4905309e+02   5.4605880e+02   5.4604026e+02   5.4300000e+02   5.4300000e+02   5.4000000e+02   5.4000000e+02   5.3900000e+02   5.3900000e+02   5.3600000e+02
3.3808470e+01   3.0984200e+01   3.1111735e+01   2.7186326e+01   2.7202263e+01   2.3152418e+01   2.3028121e+01   2.1818196e+01   2.1508906e+01   2.0083739e+01   1.9525447e+01   1.9824128e+01   1.9000000e+01   2.2000000e+01   2.2000000e+01   2.9000000e+01   3.0215633e+01   3.7240552e+01   3.8077364e+01   4.1754348e+01   4.2297481e+01   5.0726688e+01   5.1056151e+01   6.0295852e+01   6.0452652e+01   6.8531192e+01   6.8534493e+01   7.7464482e+01   7.7322794e+01   8.6111560e+01   8.5835191e+01   9.3503274e+01   9.3135200e+01   9.7768363e+01   9.7471868e+01   9.5364641e+01   9.5591088e+01   8.8911355e+01   8.9208206e+01   8.4442262e+01   8.4604795e+01   8.6697294e+01   8.6724083e+01   9.0689858e+01   9.0598955e+01   9.5455254e+01   9.5262267e+01   1.0002336e+02   9.9741979e+01   1.0542195e+02   1.0506787e+02   1.1668544e+02   1.1628167e+02   1.3386407e+02   1.3343716e+02   1.5499197e+02   1.5449893e+02   1.7000000e+02   1.7000000e+02   1.7820893e+02   1.7828806e+02   1.8323406e+02   1.8300000e+02   1.8900000e+02   1.8910309e+02   1.9516472e+02   1.9519664e+02   1.9821130e+02   1.9821681e+02   2.0421856e+02   2.0421937e+02   2.1320925e+02   2.1317898e+02   2.2111724e+02   2.2100000e+02   2.2800000e+02   2.2800000e+02   2.3000000e+02   2.3000000e+02   2.2703889e+02   2.2706192e+02   2.2504996e+02   2.2500000e+02   2.2600000e+02   2.2600000e+02   2.2500000e+02   2.2500000e+02   2.2406359e+02   2.2408196e+02   2.2404804e+02   2.2400000e+02   2.2607542e+02   2.2609461e+02   2.3606844e+02   2.3600000e+02   2.3800000e+02   2.3800000e+02   2.3300000e+02   2.3319645e+02   2.3735117e+02   2.3746076e+02   2.4452490e+02   2.4454512e+02   2.5152464e+02   2.5146988e+02   2.6139461e+02   2.6132306e+02   2.7523847e+02   2.7513527e+02   2.9000000e+02   2.9000000e+02   3.0200000e+02   3.0200000e+02   3.1400000e+02   3.1400000e+02   3.2300000e+02   3.2300000e+02   3.3500000e+02   3.3500000e+02   3.6200000e+02   3.6200000e+02   3.9000000e+02   3.9000000e+02   4.1400000e+02   4.1400000e+02   4.3300000e+02   4.3300000e+02   4.5000000e+02   4.5000000e+02   4.6700000e+02   4.6700000e+02   4.8300000e+02   4.8300000e+02   4.9700000e+02   4.9700000e+02   5.1000000e+02   5.1000000e+02   5.2300000e+02   5.2300000e+02   5.3300000e+02   5.3300000e+02   5.4500000e+02   5.4500000e+02   5.6600000e+02   5.6600000e+02   5.8000000e+02   5.8000000e+02   5.7500000e+02   5.7500000e+02   5.7200000e+02   5.7200000e+02   5.7900000e+02   5.7900000e+02   5.8000000e+02   5.8000000e+02   5.7700000e+02   5.7702577e+02   5.7703669e+02   5.7702792e+02   5.7800000e+02   5.7800000e+02   5.8000000e+02   5.8000000e+02   5.7900000e+02   5.7900000e+02   5.7400000e+02   5.7400000e+02   5.6900000e+02   5.6900000e+02   5.6400000e+02   5.6400000e+02   5.5800000e+02   5.5800000e+02   5.5200000e+02   5.5200000e+02   5.4902456e+02   5.4903607e+02   5.4603230e+02   5.4600000e+02   5.4300000e+02   5.4300000e+02   5.4000000e+02   5.4000000e+02   5.3900000e+02   5.3900000e+02   5.3600000e+02
3.2876235e+01   3.0055029e+01   3.0185029e+01   2.6261916e+01   2.6280408e+01   2.3234051e+01   2.3114494e+01   2.0911346e+01   2.0611023e+01   2.0195378e+01   1.9639937e+01   1.9913813e+01   1.9000000e+01   2.0000000e+01   2.0000000e+01   2.4000000e+01   2.5241678e+01   3.4270600e+01   3.5099466e+01   4.3763886e+01   4.4292918e+01   5.2707159e+01   5.3020909e+01   6.2243502e+01   6.2381006e+01   7.0436857e+01   7.0412466e+01   7.8307563e+01   7.8120669e+01   8.4849399e+01   8.4492283e+01   9.3051041e+01   9.2535973e+01   9.5976217e+01   9.5445274e+01   9.2148950e+01   9.2752303e+01   8.6344089e+01   8.6800901e+01   8.5128638e+01   8.5347515e+01   8.9474382e+01   8.9521643e+01   9.4498374e+01   9.4411319e+01   9.9265622e+01   9.9065430e+01   1.0381425e+02   1.0351542e+02   1.1017258e+02   1.0979023e+02   1.2137462e+02   1.2093502e+02   1.3948512e+02   1.3904099e+02   1.6159440e+02   1.6100000e+02   1.7600000e+02   1.7600000e+02   1.8615612e+02   1.8623533e+02   1.9123507e+02   1.9117652e+02   1.9617418e+02   1.9621332e+02   2.0024833e+02   2.0026937e+02   2.0227767e+02   2.0227661e+02   2.0526908e+02   2.0525604e+02   2.1423464e+02   2.1420160e+02   2.2315377e+02   2.2309377e+02   2.3005685e+02   2.3000000e+02   2.3300000e+02   2.3304137e+02   2.3205931e+02   2.3205171e+02   2.3200000e+02   2.3200000e+02   2.3300000e+02   2.3300000e+02   2.3100000e+02   2.3100000e+02   2.2600000e+02   2.2605826e+02   2.2200000e+02   2.2208240e+02   2.2312826e+02   2.2313218e+02   2.3009084e+02   2.3000000e+02   2.3200000e+02   2.3200000e+02   2.3000000e+02   2.3019184e+02   2.3633763e+02   2.3643494e+02   2.4448452e+02   2.4448748e+02   2.5244482e+02   2.5235932e+02   2.6224711e+02   2.6220015e+02   2.7713743e+02   2.7707673e+02   2.9200000e+02   2.9200000e+02   3.0100000e+02   3.0100000e+02   3.1000000e+02   3.1000000e+02   3.2000000e+02   3.2000000e+02   3.3900000e+02   3.3900000e+02   3.6700000e+02   3.6700000e+02   3.9200000e+02   3.9200000e+02   4.1300000e+02   4.1300000e+02   4.3200000e+02   4.3200000e+02   4.5000000e+02   4.5000000e+02   4.6900000e+02   4.6900000e+02   4.8300000e+02   4.8300000e+02   4.9300000e+02   4.9300000e+02   5.0000000e+02   5.0000000e+02   5.1000000e+02   5.1000000e+02   5.2200000e+02   5.2200000e+02   5.4000000e+02   5.4000000e+02   5.6100000e+02   5.6100000e+02   5.7600000e+02   5.7600000e+02   5.7100000e+02   5.7100000e+02   5.6600000e+02   5.6600000e+02   5.7100000e+02   5.7100000e+02   5.7100000e+02   5.7100000e+02   5.7200000e+02   5.7200000e+02   5.7502263e+02   5.7500000e+02   5.8000000e+02   5.8000000e+02   5.8100000e+02   5.8100000e+02   5.7500000e+02   5.7500000e+02   5.7000000e+02   5.7000000e+02   5.6600000e+02   5.6600000e+02   5.6100000e+02   5.6100000e+02   5.5500000e+02   5.5500000e+02   5.4800000e+02   5.4800000e+02   5.4500000e+02   5.4500000e+02   5.4200000e+02   5.4200000e+02   5.3800000e+02   5.3800000e+02   5.3500000e+02   5.3500000e+02   5.3400000e+02   5.3400000e+02   5.3400000e+02
3.2954821e+01   3.0140266e+01   3.0277084e+01   2.6361542e+01   2.6389121e+01   2.3354362e+01   2.3250007e+01   2.1067273e+01   2.0794063e+01   2.0412401e+01   1.9890641e+01   2.0157208e+01   1.9000000e+01   2.0000000e+01   2.0000000e+01   2.4000000e+01   2.5446600e+01   3.4466281e+01   3.5251620e+01   4.3874328e+01   4.4368587e+01   5.2753807e+01   5.3042423e+01   6.2241929e+01   6.2356647e+01   7.0388391e+01   7.0336579e+01   7.8198374e+01   7.7968432e+01   8.4638704e+01   8.4199087e+01   9.2638238e+01   9.1946958e+01   9.5120743e+01   9.4149607e+01   9.0000000e+01   9.1890579e+01   8.5877356e+01   8.6488259e+01   8.4889504e+01   8.5147854e+01   8.9296664e+01   8.9355346e+01   9.4336301e+01   9.4247932e+01   9.9096128e+01   9.8885190e+01   1.0361839e+02   1.0329850e+02   1.0992834e+02   1.0951145e+02   1.2105340e+02   1.2056426e+02   1.3906596e+02   1.3861294e+02   1.6131039e+02   1.6100000e+02   1.7600000e+02   1.7600000e+02   1.8614579e+02   1.8622772e+02   1.9125999e+02   1.9126248e+02   1.9627254e+02   1.9629330e+02   2.0031152e+02   2.0032047e+02   2.0231902e+02   2.0230851e+02   2.0529072e+02   2.0526669e+02   2.1423730e+02   2.1420461e+02   2.2316811e+02   2.2313009e+02   2.3009931e+02   2.3007159e+02   2.3306446e+02   2.3307182e+02   2.3207091e+02   2.3205124e+02   2.3200000e+02   2.3200000e+02   2.3300000e+02   2.3300000e+02   2.3100000e+02   2.3100000e+02   2.2606708e+02   2.2611676e+02   2.2213122e+02   2.2216699e+02   2.2318869e+02   2.2318061e+02   2.3012840e+02   2.3000000e+02   2.3200000e+02   2.3200000e+02   2.3000000e+02   2.3019893e+02   2.3633818e+02   2.3642249e+02   2.4445638e+02   2.4444108e+02   2.5237348e+02   2.5224107e+02   2.6200000e+02   2.6205862e+02   2.7700000e+02   2.7700000e+02   2.9200000e+02   2.9200000e+02   3.0100000e+02   3.0100000e+02   3.1000000e+02   3.1000000e+02   3.2000000e+02   3.2000000e+02   3.3900000e+02   3.3900000e+02   3.6700000e+02   3.6700000e+02   3.9200000e+02   3.9200000e+02   4.1300000e+02   4.1300000e+02   4.3200000e+02   4.3200000e+02   4.5000000e+02   4.5000000e+02   4.6900000e+02   4.6900000e+02   4.8300000e+02   4.8300000e+02   4.9300000e+02   4.9300000e+02   5.0000000e+02   5.0000000e+02   5.1000000e+02   5.1000000e+02   5.2200000e+02   5.2200000e+02   5.4000000e+02   5.4000000e+02   5.6100000e+02   5.6100000e+02   5.7600000e+02   5.7600000e+02   5.7100000e+02   5.7100000e+02   5.6600000e+02   5.6600000e+02   5.7100000e+02   5.7100000e+02   5.7100000e+02   5.7100000e+02   5.7200000e+02   5.7200000e+02   5.7501960e+02   5.7500000e+02   5.8000000e+02   5.8000000e+02   5.8100000e+02   5.8100000e+02   5.7500000e+02   5.7500000e+02   5.7000000e+02   5.7000000e+02   5.6600000e+02   5.6600000e+02   5.6100000e+02   5.6100000e+02   5.5500000e+02   5.5500000e+02   5.4800000e+02   5.4800000e+02   5.4500000e+02   5.4500000e+02   5.4201498e+02   5.4200000e+02   5.3800000e+02   5.3800000e+02   5.3500000e+02   5.3500000e+02   5.3400000e+02   5.3400000e+02   5.3400000e+02
3.1044556e+01   2.8239736e+01   2.8387105e+01   2.5483709e+01   2.5526024e+01   2.3509696e+01   2.3429506e+01   2.2279304e+01   2.2051173e+01   2.0735108e+01   2.0318565e+01   2.0790774e+01   2.0178740e+01   1.9769301e+01   1.9000000e+01   2.3062129e+01   2.4044983e+01   3.4861823e+01   3.5532059e+01   4.5078848e+01   4.5518797e+01   5.2862876e+01   5.3118733e+01   6.2290690e+01   6.2380856e+01   7.2389050e+01   7.2312722e+01   8.1146583e+01   8.0881488e+01   8.8503611e+01   8.7992717e+01   9.3321489e+01   9.2458368e+01   9.2375675e+01   9.1000000e+01   8.7784496e+01   8.8899076e+01   8.4752053e+01   8.5350851e+01   8.7758851e+01   8.8023331e+01   9.4174699e+01   9.4232374e+01   9.9209181e+01   9.9113595e+01   1.0295140e+02   1.0272643e+02   1.0744125e+02   1.0709748e+02   1.1569641e+02   1.1523946e+02   1.2772887e+02   1.2716825e+02   1.4756711e+02   1.4700000e+02   1.6900000e+02   1.6900000e+02   1.8400000e+02   1.8407309e+02   1.9216494e+02   1.9223539e+02   1.9928033e+02   1.9930646e+02   2.0432585e+02   2.0434142e+02   2.0634962e+02   2.0634761e+02   2.0633503e+02   2.0631334e+02   2.1028423e+02   2.1024835e+02   2.2020886e+02   2.2017709e+02   2.3014958e+02   2.3012482e+02   2.3610432e+02   2.3608823e+02   2.3708008e+02   2.3707615e+02   2.3806690e+02   2.3804797e+02   2.3703941e+02   2.3703765e+02   2.3300000e+02   2.3300000e+02   2.2600000e+02   2.2600000e+02   2.2211724e+02   2.2217611e+02   2.2020677e+02   2.2023128e+02   2.2024451e+02   2.2023878e+02   2.2120782e+02   2.2115144e+02   2.2310564e+02   2.2300000e+02   2.2700000e+02   2.2723135e+02   2.3735931e+02   2.3742607e+02   2.4644306e+02   2.4641259e+02   2.5433258e+02   2.5419712e+02   2.6500000e+02   2.6500000e+02   2.8000000e+02   2.8000000e+02   2.9300000e+02   2.9300000e+02   3.0000000e+02   3.0000000e+02   3.0700000e+02   3.0700000e+02   3.2000000e+02   3.2000000e+02   3.4400000e+02   3.4400000e+02   3.7200000e+02   3.7200000e+02   3.9500000e+02   3.9500000e+02   4.1200000e+02   4.1200000e+02   4.2900000e+02   4.2900000e+02   4.4800000e+02   4.4800000e+02   4.6600000e+02   4.6600000e+02   4.7700000e+02   4.7700000e+02   4.8400000e+02   4.8400000e+02   4.9000000e+02   4.9000000e+02   5.0000000e+02   5.0000000e+02   5.1400000e+02   5.1400000e+02   5.3400000e+02   5.3400000e+02   5.5400000e+02   5.5400000e+02   5.6900000e+02   5.6900000e+02   5.6800000e+02   5.6800000e+02   5.6000000e+02   5.6000000e+02   5.6400000e+02   5.6400000e+02   5.6800000e+02   5.6800000e+02   5.7300000e+02   5.7300000e+02   5.7902151e+02   5.7900000e+02   5.8400000e+02   5.8400000e+02   5.8100000e+02   5.8100000e+02   5.7400000e+02   5.7400000e+02   5.6800000e+02   5.6800000e+02   5.6300000e+02   5.6300000e+02   5.5900000e+02   5.5901852e+02   5.5601782e+02   5.5600000e+02   5.5300000e+02   5.5300000e+02   5.5100000e+02   5.5102250e+02   5.4502564e+02   5.4500000e+02   5.3900000e+02   5.3900000e+02   5.3500000e+02   5.3500000e+02   5.3300000e+02   5.3300000e+02   5.3600000e+02
3.1145181e+01   2.8352659e+01   2.8513580e+01   2.5625852e+01   2.5687207e+01   2.3694402e+01   2.3644689e+01   2.2534829e+01   2.2361807e+01   2.1123897e+01   2.0823312e+01   2.1474121e+01   2.1121257e+01   2.0866106e+01   2.0725059e+01   2.4171431e+01   2.4774980e+01   3.5369597e+01   3.5901484e+01   4.5355887e+01   4.5730303e+01   5.3025903e+01   5.3244528e+01   6.2386859e+01   6.2452606e+01   7.2439811e+01   7.2344391e+01   8.1159279e+01   8.0873002e+01   8.8467140e+01   8.7912334e+01   9.3162191e+01   9.2154892e+01   9.1890254e+01   9.1000000e+01   8.8206520e+01   8.9134636e+01   8.4846479e+01   8.5369812e+01   8.7737314e+01   8.7977551e+01   9.4112009e+01   9.4155939e+01   9.9120071e+01   9.9011532e+01   1.0283507e+02   1.0259357e+02   1.0728829e+02   1.0691940e+02   1.1548598e+02   1.1498674e+02   1.2741995e+02   1.2677836e+02   1.4700000e+02   1.4700000e+02   1.6900000e+02   1.6900000e+02   1.8400000e+02   1.8409303e+02   1.9217108e+02   1.9223421e+02   1.9928510e+02   1.9932283e+02   2.0434858e+02   2.0436255e+02   2.0636356e+02   2.0635093e+02   2.0632579e+02   2.0629120e+02   2.1025014e+02   2.1019922e+02   2.2013834e+02   2.2011093e+02   2.3009395e+02   2.3008092e+02   2.3607054e+02   2.3606256e+02   2.3705711e+02   2.3705145e+02   2.3803817e+02   2.3800000e+02   2.3703765e+02   2.3707687e+02   2.3309314e+02   2.3310765e+02   2.2612129e+02   2.2614176e+02   2.2219142e+02   2.2222928e+02   2.2025411e+02   2.2027249e+02   2.2028491e+02   2.2028783e+02   2.2127827e+02   2.2125793e+02   2.2323684e+02   2.2321358e+02   2.2723834e+02   2.2733280e+02   2.3740726e+02   2.3744505e+02   2.4644283e+02   2.4639927e+02   2.5431274e+02   2.5418045e+02   2.6500000e+02   2.6500000e+02   2.8000000e+02   2.8000000e+02   2.9300000e+02   2.9300000e+02   3.0000000e+02   3.0000000e+02   3.0700000e+02   3.0700000e+02   3.2000000e+02   3.2000000e+02   3.4400000e+02   3.4400000e+02   3.7200000e+02   3.7200000e+02   3.9500000e+02   3.9500000e+02   4.1200000e+02   4.1200000e+02   4.2900000e+02   4.2900000e+02   4.4800000e+02   4.4800000e+02   4.6600000e+02   4.6600000e+02   4.7700000e+02   4.7700000e+02   4.8400000e+02   4.8400000e+02   4.9000000e+02   4.9000000e+02   5.0000000e+02   5.0000000e+02   5.1400000e+02   5.1400000e+02   5.3400000e+02   5.3400000e+02   5.5400000e+02   5.5400000e+02   5.6900000e+02   5.6900000e+02   5.6800000e+02   5.6800000e+02   5.6002098e+02   5.6002130e+02   5.6400000e+02   5.6400000e+02   5.6800000e+02   5.6800000e+02   5.7302664e+02   5.7303526e+02   5.7903213e+02   5.7900000e+02   5.8400000e+02   5.8400000e+02   5.8100000e+02   5.8100000e+02   5.7400000e+02   5.7400000e+02   5.6801446e+02   5.6801206e+02   5.6300000e+02   5.6300000e+02   5.5901729e+02   5.5902217e+02   5.5601857e+02   5.5600000e+02   5.5300000e+02   5.5300000e+02   5.5100000e+02   5.5103007e+02   5.4503073e+02   5.4500000e+02   5.3901496e+02   5.3900000e+02   5.3500000e+02   5.3500000e+02   5.3301871e+02   5.3301793e+02   5.3600000e+02
3.2256060e+01   2.9477734e+01   2.9654353e+01   2.6784902e+01   2.6867816e+01   2.3901706e+01   2.3885616e+01   2.2819089e+01   2.2702967e+01   2.1540978e+01   2.1342320e+01   2.1126699e+01   2.0931595e+01   2.2814272e+01   2.2829719e+01   2.6089089e+01   2.6479502e+01   3.2905562e+01   3.3313998e+01   4.0678389e+01   4.0986315e+01   5.1231886e+01   5.1412173e+01   6.2525209e+01   6.2568506e+01   7.3538824e+01   7.3431385e+01   8.2238846e+01   8.1949638e+01   8.9545276e+01   8.8992926e+01   9.3225551e+01   9.2074229e+01   9.1000000e+01   9.2044514e+01   8.7874030e+01   8.8551950e+01   8.6094995e+01   8.6510216e+01   9.2808649e+01   9.3003155e+01   1.0010548e+02   1.0012508e+02   1.0306925e+02   1.0294297e+02   1.0474943e+02   1.0449004e+02   1.1116465e+02   1.1077144e+02   1.2130704e+02   1.2076717e+02   1.4015144e+02   1.3949096e+02   1.6000000e+02   1.6000000e+02   1.7700000e+02   1.7700000e+02   1.9000000e+02   1.9009355e+02   2.0015777e+02   2.0021088e+02   2.0726865e+02   2.0731679e+02   2.1134870e+02   2.1136228e+02   2.1135675e+02   2.1133238e+02   2.0929165e+02   2.0924114e+02   2.1319155e+02   2.1312569e+02   2.2400000e+02   2.2400000e+02   2.3700000e+02   2.3700000e+02   2.4300000e+02   2.4300000e+02   2.4300000e+02   2.4300000e+02   2.4000000e+02   2.4000000e+02   2.3400000e+02   2.3410466e+02   2.2915368e+02   2.2918180e+02   2.2520142e+02   2.2521997e+02   2.2224303e+02   2.2226112e+02   2.2127352e+02   2.2128528e+02   2.2230044e+02   2.2231498e+02   2.2032515e+02   2.2033081e+02   2.2133582e+02   2.2134487e+02   2.2737260e+02   2.2741988e+02   2.3645749e+02   2.3646968e+02   2.4544956e+02   2.4539456e+02   2.5230426e+02   2.5217758e+02   2.6100000e+02   2.6100000e+02   2.7500000e+02   2.7500000e+02   2.8900000e+02   2.8900000e+02   2.9700000e+02   2.9700000e+02   3.0900000e+02   3.0900000e+02   3.2400000e+02   3.2400000e+02   3.4800000e+02   3.4800000e+02   3.7500000e+02   3.7500000e+02   3.9700000e+02   3.9700000e+02   4.1600000e+02   4.1600000e+02   4.3300000e+02   4.3300000e+02   4.4600000e+02   4.4600000e+02   4.5900000e+02   4.5900000e+02   4.6400000e+02   4.6400000e+02   4.7000000e+02   4.7000000e+02   4.8300000e+02   4.8300000e+02   4.9600000e+02   4.9600000e+02   5.1100000e+02   5.1100000e+02   5.2900000e+02   5.2900000e+02   5.4800000e+02   5.4800000e+02   5.6200000e+02   5.6200000e+02   5.6500000e+02   5.6500000e+02   5.6102946e+02   5.6103006e+02   5.6500000e+02   5.6500000e+02   5.7000000e+02   5.7000000e+02   5.7603675e+02   5.7604811e+02   5.8103768e+02   5.8100000e+02   5.8100000e+02   5.8100000e+02   5.7800000e+02   5.7800000e+02   5.7500000e+02   5.7500000e+02   5.7201200e+02   5.7200000e+02   5.6500000e+02   5.6500000e+02   5.5901284e+02   5.5900000e+02   5.5800000e+02   5.5800000e+02   5.5800000e+02   5.5800000e+02   5.5300000e+02   5.5303270e+02   5.4503284e+02   5.4500000e+02   5.3802556e+02   5.3802243e+02   5.3300000e+02   5.3300000e+02   5.3102261e+02   5.3101871e+02   5.3200000e+02
3.2376366e+01   2.9613399e+01   2.9807046e+01   2.6957183e+01   2.7062981e+01   2.4124577e+01   2.4142541e+01   2.3118481e+01   2.3055666e+01   2.1960382e+01   2.1843807e+01   2.1724352e+01   2.1629695e+01   2.3595364e+01   2.3656033e+01   2.6841210e+01   2.7113869e+01   3.3424871e+01   3.3736060e+01   4.1022888e+01   4.1270208e+01   5.1468867e+01   5.1612944e+01   6.2698983e+01   6.2722976e+01   7.3681199e+01   7.3569082e+01   8.2380491e+01   8.2107073e+01   8.9737066e+01   8.9254104e+01   9.3638400e+01   9.2884502e+01   9.3118774e+01   9.3273632e+01   8.8658540e+01   8.9069759e+01   8.6436919e+01   8.6733043e+01   9.2949628e+01   9.3086607e+01   1.0014716e+02   1.0013527e+02   1.0305445e+02   1.0290734e+02   1.0469529e+02   1.0441820e+02   1.1107447e+02   1.1066031e+02   1.2116918e+02   1.2058905e+02   1.3989325e+02   1.3900000e+02   1.6000000e+02   1.6000000e+02   1.7700000e+02   1.7700000e+02   1.9004220e+02   1.9008899e+02   2.0012117e+02   2.0014848e+02   2.0722748e+02   2.0729263e+02   2.1133278e+02   2.1134674e+02   2.1133442e+02   2.1129583e+02   2.0923290e+02   2.0915581e+02   2.1311484e+02   2.1307764e+02   2.2403567e+02   2.2400000e+02   2.3700000e+02   2.3700000e+02   2.4300000e+02   2.4300000e+02   2.4300000e+02   2.4300000e+02   2.4000000e+02   2.4000000e+02   2.3408213e+02   2.3415376e+02   2.2920073e+02   2.2923008e+02   2.2524823e+02   2.2525932e+02   2.2226522e+02   2.2226428e+02   2.2125919e+02   2.2126030e+02   2.2228222e+02   2.2231214e+02   2.2034217e+02   2.2036995e+02   2.2139638e+02   2.2142314e+02   2.2745285e+02   2.2748226e+02   2.3649877e+02   2.3649224e+02   2.4545681e+02   2.4539078e+02   2.5229779e+02   2.5219124e+02   2.6110271e+02   2.6107126e+02   2.7505433e+02   2.7504027e+02   2.8902924e+02   2.8901575e+02   2.9700000e+02   2.9700000e+02   3.0900000e+02   3.0900000e+02   3.2400000e+02   3.2400000e+02   3.4800000e+02   3.4800000e+02   3.7500000e+02   3.7500000e+02   3.9700000e+02   3.9700000e+02   4.1600000e+02   4.1600000e+02   4.3300000e+02   4.3300000e+02   4.4600000e+02   4.4600000e+02   4.5900000e+02   4.5900000e+02   4.6400000e+02   4.6400000e+02   4.7000000e+02   4.7000000e+02   4.8300000e+02   4.8300000e+02   4.9600000e+02   4.9600000e+02   5.1100000e+02   5.1100000e+02   5.2900000e+02   5.2900000e+02   5.4800000e+02   5.4800000e+02   5.6200000e+02   5.6200000e+02   5.6500000e+02   5.6500000e+02   5.6103302e+02   5.6103500e+02   5.6500000e+02   5.6500000e+02   5.7000000e+02   5.7000000e+02   5.7603779e+02   5.7604805e+02   5.8103663e+02   5.8100000e+02   5.8100000e+02   5.8100000e+02   5.7800000e+02   5.7800000e+02   5.7500000e+02   5.7500000e+02   5.7200000e+02   5.7200000e+02   5.6500000e+02   5.6500000e+02   5.5900000e+02   5.5900000e+02   5.5800000e+02   5.5800000e+02   5.5800000e+02   5.5800000e+02   5.5300000e+02   5.5303355e+02   5.4503357e+02   5.4500000e+02   5.3803048e+02   5.3802983e+02   5.3300000e+02   5.3300000e+02   5.3101865e+02   5.3100000e+02   5.3200000e+02
3.3505132e+01   2.9758094e+01   2.9969405e+01   2.7139176e+01   2.7267951e+01   2.5356683e+01   2.5407195e+01   2.3422254e+01   2.3406405e+01   2.2366698e+01   2.2313800e+01   2.3262752e+01   2.3233212e+01   2.3247155e+01   2.3323509e+01   2.6471479e+01   2.6675432e+01   3.2909429e+01   3.3148298e+01   4.0372586e+01   4.0568341e+01   5.0725838e+01   5.0838093e+01   6.2900339e+01   6.2908798e+01   7.3859513e+01   7.3748781e+01   8.2572598e+01   8.2326703e+01   9.0007318e+01   8.9613625e+01   9.5155024e+01   9.4672171e+01   9.5284913e+01   9.5238322e+01   9.1382311e+01   9.1597268e+01   9.2815555e+01   9.3001024e+01   1.0013584e+02   1.0021219e+02   1.0322702e+02   1.0318006e+02   1.0407171e+02   1.0390228e+02   1.0667176e+02   1.0637869e+02   1.1402025e+02   1.1359177e+02   1.2708589e+02   1.2649227e+02   1.4679836e+02   1.4600000e+02   1.6600000e+02   1.6600000e+02   1.8200000e+02   1.8200000e+02   1.9604537e+02   1.9606466e+02   2.1005507e+02   2.1000000e+02   2.1816576e+02   2.1825909e+02   2.2130868e+02   2.2132311e+02   2.1630398e+02   2.1624924e+02   2.1215394e+02   2.1200000e+02   2.1400000e+02   2.1400000e+02   2.2103071e+02   2.2100000e+02   2.3400000e+02   2.3400000e+02   2.4300000e+02   2.4300000e+02   2.4300000e+02   2.4300000e+02   2.3700000e+02   2.3707630e+02   2.3514041e+02   2.3519317e+02   2.3423101e+02   2.3425521e+02   2.2926773e+02   2.2926950e+02   2.2425988e+02   2.2423723e+02   2.2420427e+02   2.2418014e+02   2.2622164e+02   2.2627482e+02   2.2432706e+02   2.2437607e+02   2.2342225e+02   2.2346407e+02   2.2849916e+02   2.2852310e+02   2.3752870e+02   2.3750932e+02   2.4646027e+02   2.4637958e+02   2.5227048e+02   2.5215251e+02   2.6111395e+02   2.6109361e+02   2.7607140e+02   2.7604316e+02   2.9102662e+02   2.9100000e+02   3.0300000e+02   3.0300000e+02   3.1500000e+02   3.1500000e+02   3.2900000e+02   3.2900000e+02   3.5100000e+02   3.5100000e+02   3.7700000e+02   3.7700000e+02   3.9900000e+02   3.9900000e+02   4.1700000e+02   4.1700000e+02   4.3200000e+02   4.3200000e+02   4.4100000e+02   4.4100000e+02   4.4800000e+02   4.4800000e+02   4.5500000e+02   4.5500000e+02   4.6800000e+02   4.6800000e+02   4.8400000e+02   4.8400000e+02   4.9800000e+02   4.9800000e+02   5.1000000e+02   5.1000000e+02   5.2300000e+02   5.2300000e+02   5.4200000e+02   5.4200000e+02   5.6000000e+02   5.6000000e+02   5.6400000e+02   5.6400000e+02   5.5903388e+02   5.5904242e+02   5.6102689e+02   5.6100000e+02   5.6900000e+02   5.6902001e+02   5.7503186e+02   5.7503521e+02   5.7902650e+02   5.7900000e+02   5.7700000e+02   5.7700000e+02   5.7000000e+02   5.7000000e+02   5.6700000e+02   5.6700000e+02   5.6800000e+02   5.6800000e+02   5.6900000e+02   5.6900000e+02   5.6600000e+02   5.6600000e+02   5.6300000e+02   5.6300000e+02   5.6000000e+02   5.6000000e+02   5.5200000e+02   5.5203357e+02   5.4403355e+02   5.4400000e+02   5.3603219e+02   5.3603206e+02   5.3200000e+02   5.3200000e+02   5.3001768e+02   5.3000000e+02   5.2800000e+02
3.3641504e+01   2.9910269e+01   3.0138934e+01   2.7327737e+01   2.7478475e+01   2.5592655e+01   2.5672889e+01   2.3722541e+01   2.3746572e+01   2.2751859e+01   2.2747527e+01   2.3745414e+01   2.3758971e+01   2.3802024e+01   2.3885004e+01   2.7011177e+01   2.7172673e+01   3.3354652e+01   3.3540784e+01   4.0716480e+01   4.0870384e+01   5.0993448e+01   5.1079150e+01   6.3121699e+01   6.3118304e+01   7.4065218e+01   7.3959854e+01   8.2800354e+01   8.2585412e+01   9.0317571e+01   9.0003561e+01   9.5661430e+01   9.5329930e+01   9.6076218e+01   9.5978113e+01   9.2000819e+01   9.2087570e+01   9.3192719e+01   9.3285409e+01   1.0034638e+02   1.0036466e+02   1.0333422e+02   1.0325175e+02   1.0411548e+02   1.0392416e+02   1.0667651e+02   1.0637019e+02   1.1400185e+02   1.1356623e+02   1.2705599e+02   1.2646133e+02   1.4677381e+02   1.4600000e+02   1.6600000e+02   1.6600000e+02   1.8200000e+02   1.8200000e+02   1.9604020e+02   1.9603482e+02   2.1000000e+02   2.1000000e+02   2.1814207e+02   2.1823493e+02   2.2128536e+02   2.2129866e+02   2.1627479e+02   2.1620883e+02   2.1209927e+02   2.1200000e+02   2.1400000e+02   2.1400000e+02   2.2105283e+02   2.2104583e+02   2.3400000e+02   2.3400000e+02   2.4300000e+02   2.4300000e+02   2.4300000e+02   2.4304930e+02   2.3708250e+02   2.3713044e+02   2.3517569e+02   2.3521310e+02   2.3424059e+02   2.3425762e+02   2.2926361e+02   2.2925668e+02   2.2423321e+02   2.2418610e+02   2.2410617e+02   2.2400000e+02   2.2611500e+02   2.2620409e+02   2.2428081e+02   2.2435063e+02   2.2341811e+02   2.2347736e+02   2.2852228e+02   2.2854785e+02   2.3754924e+02   2.3752171e+02   2.4646099e+02   2.4636242e+02   2.5221767e+02   2.5200000e+02   2.6107258e+02   2.6108344e+02   2.7606011e+02   2.7600000e+02   2.9100000e+02   2.9100000e+02   3.0300000e+02   3.0300000e+02   3.1500000e+02   3.1500000e+02   3.2900000e+02   3.2900000e+02   3.5100000e+02   3.5100000e+02   3.7700000e+02   3.7700000e+02   3.9900000e+02   3.9900000e+02   4.1700000e+02   4.1700000e+02   4.3200000e+02   4.3200000e+02   4.4100000e+02   4.4100000e+02   4.4800000e+02   4.4800000e+02   4.5500000e+02   4.5500000e+02   4.6800000e+02   4.6800000e+02   4.8400000e+02   4.8400000e+02   4.9800000e+02   4.9800000e+02   5.1000000e+02   5.1000000e+02   5.2300000e+02   5.2300000e+02   5.4200000e+02   5.4200000e+02   5.6000000e+02   5.6000000e+02   5.6400000e+02   5.6400000e+02   5.5902644e+02   5.5903939e+02   5.6103067e+02   5.6100000e+02   5.6900000e+02   5.6901359e+02   5.7500000e+02   5.7500000e+02   5.7900000e+02   5.7900000e+02   5.7700000e+02   5.7700000e+02   5.7000000e+02   5.7000000e+02   5.6700000e+02   5.6700000e+02   5.6800000e+02   5.6800000e+02   5.6900000e+02   5.6900000e+02   5.6600000e+02   5.6600000e+02   5.6300000e+02   5.6300000e+02   5.6000000e+02   5.6000000e+02   5.5200000e+02   5.5203283e+02   5.4403270e+02   5.4400000e+02   5.3603188e+02   5.3603185e+02   5.3200000e+02   5.3200000e+02   5.3001771e+02   5.3000000e+02   5.2800000e+02
3.2784763e+01   3.1068818e+01   3.1313459e+01   3.0520302e+01   3.0691142e+01   2.6828275e+01   2.6934691e+01   2.4014039e+01   2.4071157e+01   2.3112246e+01   2.3144916e+01   2.3178053e+01   2.3221015e+01   2.4282609e+01   2.4368875e+01   2.6481289e+01   2.6615088e+01   3.2761630e+01   3.2909445e+01   4.1048327e+01   4.1169302e+01   5.1264592e+01   5.1328311e+01   6.3355480e+01   6.3343425e+01   7.4288775e+01   7.4190725e+01   8.2048577e+01   8.1863469e+01   8.9640021e+01   8.9387733e+01   9.5123526e+01   9.4874912e+01   9.5678136e+01   9.5562826e+01   9.4520594e+01   9.4525037e+01   9.5548013e+01   9.5566882e+01   9.9565123e+01   9.9531557e+01   1.0345901e+02   1.0334278e+02   1.0617989e+02   1.0596813e+02   1.0970542e+02   1.0938923e+02   1.1801616e+02   1.1758112e+02   1.3107611e+02   1.3048891e+02   1.4980144e+02   1.4900000e+02   1.7000000e+02   1.7000000e+02   1.8900000e+02   1.8900000e+02   1.9904622e+02   1.9900000e+02   2.0100000e+02   2.0100000e+02   2.1113316e+02   2.1121888e+02   2.1726481e+02   2.1727701e+02   2.1425332e+02   2.1417763e+02   2.1200000e+02   2.1200000e+02   2.1400000e+02   2.1407034e+02   2.2310044e+02   2.2309615e+02   2.3507260e+02   2.3505685e+02   2.4504639e+02   2.4504446e+02   2.4505237e+02   2.4508038e+02   2.4111589e+02   2.4115291e+02   2.4118442e+02   2.4120860e+02   2.4022624e+02   2.4023671e+02   2.3523805e+02   2.3522603e+02   2.3119580e+02   2.3113343e+02   2.3100000e+02   2.3100000e+02   2.2900000e+02   2.2911135e+02   2.2520706e+02   2.2529317e+02   2.2438784e+02   2.2447060e+02   2.2853038e+02   2.2856251e+02   2.3556428e+02   2.3553290e+02   2.4346517e+02   2.4335705e+02   2.5020342e+02   2.5000000e+02   2.6105856e+02   2.6107307e+02   2.7805126e+02   2.7800000e+02   2.9400000e+02   2.9400000e+02   3.0700000e+02   3.0700000e+02   3.1900000e+02   3.1900000e+02   3.3400000e+02   3.3400000e+02   3.5500000e+02   3.5500000e+02   3.7800000e+02   3.7800000e+02   3.9700000e+02   3.9700000e+02   4.1200000e+02   4.1200000e+02   4.2300000e+02   4.2300000e+02   4.3500000e+02   4.3500000e+02   4.4400000e+02   4.4400000e+02   4.5400000e+02   4.5400000e+02   4.7100000e+02   4.7100000e+02   4.8800000e+02   4.8800000e+02   5.0000000e+02   5.0000000e+02   5.0900000e+02   5.0900000e+02   5.1900000e+02   5.1900000e+02   5.3700000e+02   5.3700000e+02   5.5600000e+02   5.5600000e+02   5.6300000e+02   5.6300000e+02   5.5900000e+02   5.5902351e+02   5.6102196e+02   5.6100000e+02   5.6900000e+02   5.6900000e+02   5.7400000e+02   5.7400000e+02   5.7600000e+02   5.7600000e+02   5.7400000e+02   5.7400000e+02   5.6700000e+02   5.6700000e+02   5.6100000e+02   5.6100000e+02   5.6100000e+02   5.6100000e+02   5.6700000e+02   5.6700000e+02   5.6900000e+02   5.6902396e+02   5.6502222e+02   5.6500000e+02   5.5900000e+02   5.5900000e+02   5.5200000e+02   5.5203072e+02   5.4403007e+02   5.4400000e+02   5.3902913e+02   5.3902912e+02   5.3400000e+02   5.3400000e+02   5.3101883e+02   5.3100000e+02   5.2700000e+02
3.2934639e+01   3.1232354e+01   3.1491482e+01   3.0714361e+01   3.0903036e+01   2.7060255e+01   2.7189137e+01   2.4293360e+01   2.4377409e+01   2.3446806e+01   2.3507636e+01   2.3566433e+01   2.3629959e+01   2.4704048e+01   2.4792762e+01   2.6895982e+01   2.7011153e+01   3.3132418e+01   3.3252555e+01   4.1363959e+01   4.1459500e+01   5.1532951e+01   5.1579429e+01   6.3594431e+01   6.3576090e+01   7.4521968e+01   7.4431581e+01   8.2305185e+01   8.2145125e+01   8.9956916e+01   8.9749133e+01   9.5535281e+01   9.5333563e+01   9.6163903e+01   9.6039827e+01   9.4959376e+01   9.4909375e+01   9.5873107e+01   9.5834761e+01   9.9781325e+01   9.9703102e+01   1.0359302e+02   1.0344610e+02   1.0625882e+02   1.0602868e+02   1.0975334e+02   1.0943081e+02   1.1805811e+02   1.1763146e+02   1.3114419e+02   1.3058242e+02   1.4990906e+02   1.4900000e+02   1.7000000e+02   1.7000000e+02   1.8912168e+02   1.8913538e+02   1.9911029e+02   1.9900000e+02   2.0100000e+02   2.0100000e+02   2.1113729e+02   2.1120822e+02   2.1724362e+02   2.1725689e+02   2.1424946e+02   2.1421405e+02   2.1215321e+02   2.1213503e+02   2.1413205e+02   2.1414663e+02   2.2314806e+02   2.2313136e+02   2.3510306e+02   2.3507406e+02   2.4504989e+02   2.4504474e+02   2.4505027e+02   2.4506960e+02   2.4111338e+02   2.4114652e+02   2.4116613e+02   2.4117625e+02   2.4018468e+02   2.4019056e+02   2.3519149e+02   2.3517920e+02   2.3115615e+02   2.3111750e+02   2.3105431e+02   2.3100000e+02   2.2900000e+02   2.2900000e+02   2.2510853e+02   2.2519278e+02   2.2433511e+02   2.2445244e+02   2.2853175e+02   2.2857323e+02   2.3557802e+02   2.3554604e+02   2.4347537e+02   2.4336283e+02   2.5020459e+02   2.5000000e+02   2.6105419e+02   2.6106465e+02   2.7803754e+02   2.7800000e+02   2.9400000e+02   2.9400000e+02   3.0700000e+02   3.0700000e+02   3.1900000e+02   3.1900000e+02   3.3400000e+02   3.3400000e+02   3.5500000e+02   3.5500000e+02   3.7800000e+02   3.7800000e+02   3.9700000e+02   3.9700000e+02   4.1200000e+02   4.1200000e+02   4.2300000e+02   4.2300000e+02   4.3500000e+02   4.3500000e+02   4.4400000e+02   4.4400000e+02   4.5400000e+02   4.5400000e+02   4.7100000e+02   4.7100000e+02   4.8800000e+02   4.8800000e+02   5.0000000e+02   5.0000000e+02   5.0900000e+02   5.0900000e+02   5.1900000e+02   5.1900000e+02   5.3700000e+02   5.3700000e+02   5.5600000e+02   5.5600000e+02   5.6300000e+02   5.6300000e+02   5.5900000e+02   5.5900000e+02   5.6100000e+02   5.6100000e+02   5.6900000e+02   5.6900000e+02   5.7400000e+02   5.7400000e+02   5.7600000e+02   5.7600000e+02   5.7400000e+02   5.7400000e+02   5.6700000e+02   5.6700000e+02   5.6100000e+02   5.6100000e+02   5.6100000e+02   5.6100000e+02   5.6700000e+02   5.6700000e+02   5.6902738e+02   5.6903944e+02   5.6503065e+02   5.6500000e+02   5.5900000e+02   5.5900000e+02   5.5200000e+02   5.5202563e+02   5.4402250e+02   5.4400000e+02   5.3902115e+02   5.3902115e+02   5.3400000e+02   5.3400000e+02   5.3102325e+02   5.3101991e+02   5.2700000e+02
3.6090482e+01   3.7399875e+01   3.7671616e+01   3.5908128e+01   3.6112007e+01   2.8286165e+01   2.8433776e+01   2.4558402e+01   2.4664243e+01   2.3755790e+01   2.3837837e+01   2.3915656e+01   2.3994487e+01   2.5077304e+01   2.5167518e+01   2.5264543e+01   2.5366755e+01   2.8470428e+01   2.8570374e+01   3.6661085e+01   3.6737124e+01   5.0793807e+01   5.0827028e+01   6.1833086e+01   6.1810464e+01   7.0757662e+01   7.0674234e+01   7.9560932e+01   7.9420996e+01   8.7259102e+01   8.7082435e+01   9.2900766e+01   9.2726077e+01   9.4569790e+01   9.4438970e+01   9.4333271e+01   9.4245672e+01   9.6166005e+01   9.6083308e+01   9.9988046e+01   9.9872199e+01   1.0372952e+02   1.0355534e+02   1.0834633e+02   1.0809995e+02   1.1281437e+02   1.1248806e+02   1.1911969e+02   1.1870810e+02   1.3025238e+02   1.2975303e+02   1.4521850e+02   1.4469955e+02   1.6147117e+02   1.6135695e+02   1.7931717e+02   1.7927515e+02   1.9022514e+02   1.9016420e+02   1.9313886e+02   1.9313622e+02   2.0117340e+02   2.0119867e+02   2.0921025e+02   2.0922311e+02   2.1523919e+02   2.1524153e+02   2.1722940e+02   2.1722053e+02   2.1821220e+02   2.1820167e+02   2.3117945e+02   2.3114380e+02   2.5009984e+02   2.5005206e+02   2.5400000e+02   2.5400000e+02   2.4700000e+02   2.4700000e+02   2.4708716e+02   2.4711928e+02   2.5012296e+02   2.5011122e+02   2.4911131e+02   2.4911499e+02   2.4412376e+02   2.4410876e+02   2.3909774e+02   2.3909172e+02   2.3506542e+02   2.3500000e+02   2.2800000e+02   2.2800000e+02   2.2200000e+02   2.2200000e+02   2.2227302e+02   2.2243792e+02   2.2753660e+02   2.2758625e+02   2.3159429e+02   2.3156342e+02   2.3649306e+02   2.3637993e+02   2.4621774e+02   2.4600000e+02   2.5905917e+02   2.5905941e+02   2.7700000e+02   2.7700000e+02   2.9700000e+02   2.9700000e+02   3.1200000e+02   3.1200000e+02   3.2200000e+02   3.2200000e+02   3.3900000e+02   3.3900000e+02   3.5900000e+02   3.5900000e+02   3.7900000e+02   3.7900000e+02   3.9500000e+02   3.9500000e+02   4.0700000e+02   4.0700000e+02   4.1800000e+02   4.1800000e+02   4.3100000e+02   4.3100000e+02   4.4200000e+02   4.4200000e+02   4.5500000e+02   4.5500000e+02   4.7200000e+02   4.7200000e+02   4.8800000e+02   4.8800000e+02   4.9900000e+02   4.9900000e+02   5.0900000e+02   5.0900000e+02   5.2200000e+02   5.2200000e+02   5.4000000e+02   5.4000000e+02   5.5500000e+02   5.5500000e+02   5.6200000e+02   5.6200000e+02   5.5900000e+02   5.5900000e+02   5.6200000e+02   5.6200000e+02   5.6900000e+02   5.6900000e+02   5.7100000e+02   5.7100000e+02   5.7100000e+02   5.7100000e+02   5.7200000e+02   5.7200000e+02   5.6900000e+02   5.6900000e+02   5.6600000e+02   5.6600000e+02   5.6600000e+02   5.6600000e+02   5.6700000e+02   5.6700000e+02   5.6703598e+02   5.6704138e+02   5.6602658e+02   5.6600000e+02   5.6200000e+02   5.6200000e+02   5.5500000e+02   5.5501497e+02   5.4900000e+02   5.4900000e+02   5.4500000e+02   5.4500000e+02   5.3900000e+02   5.3900000e+02   5.3401991e+02   5.3402207e+02   5.3000000e+02
3.6252107e+01   3.7570819e+01   3.7852540e+01   3.6100063e+01   3.6316272e+01   2.8504227e+01   2.8667097e+01   2.4808071e+01   2.4931071e+01   2.4039648e+01   2.4138008e+01   2.4230447e+01   2.4320174e+01   2.5409567e+01   2.5500625e+01   2.5593187e+01   2.5686348e+01   2.8777518e+01   2.8862811e+01   3.6938305e+01   3.6999714e+01   5.1043771e+01   5.1066876e+01   6.2066162e+01   6.2040838e+01   7.0989318e+01   7.0911880e+01   7.9809325e+01   7.9684488e+01   8.7541615e+01   8.7386064e+01   9.3224852e+01   9.3065796e+01   9.4915727e+01   9.4778781e+01   9.4654891e+01   9.4539936e+01   9.6427506e+01   9.6310284e+01   1.0018112e+02   1.0003383e+02   1.0386315e+02   1.0366516e+02   1.0843692e+02   1.0817621e+02   1.1288181e+02   1.1255298e+02   1.1919015e+02   1.1879457e+02   1.3036986e+02   1.2992443e+02   1.4547795e+02   1.4507461e+02   1.6179410e+02   1.6160523e+02   1.7948050e+02   1.7938848e+02   1.9031653e+02   1.9025843e+02   1.9322062e+02   1.9319824e+02   2.0118703e+02   2.0116843e+02   2.0914120e+02   2.0915173e+02   2.1520830e+02   2.1524911e+02   2.1726795e+02   2.1727111e+02   2.1826020e+02   2.1823404e+02   2.3118990e+02   2.3113016e+02   2.5006608e+02   2.5000000e+02   2.5400000e+02   2.5400000e+02   2.4700000e+02   2.4704628e+02   2.4708163e+02   2.4708610e+02   2.5006085e+02   2.5000000e+02   2.4900000e+02   2.4900000e+02   2.4404541e+02   2.4400000e+02   2.3900000e+02   2.3905183e+02   2.3508131e+02   2.3506302e+02   2.2800000e+02   2.2800000e+02   2.2200000e+02   2.2200000e+02   2.2228474e+02   2.2245525e+02   2.2755612e+02   2.2760650e+02   2.3161516e+02   2.3158585e+02   2.3651914e+02   2.3641169e+02   2.4625209e+02   2.4600000e+02   2.5908870e+02   2.5907950e+02   2.7700000e+02   2.7700000e+02   2.9700000e+02   2.9700000e+02   3.1200000e+02   3.1200000e+02   3.2200000e+02   3.2200000e+02   3.3900000e+02   3.3900000e+02   3.5900000e+02   3.5900000e+02   3.7900000e+02   3.7900000e+02   3.9500000e+02   3.9500000e+02   4.0700000e+02   4.0700000e+02   4.1800000e+02   4.1800000e+02   4.3100000e+02   4.3100000e+02   4.4200000e+02   4.4200000e+02   4.5500000e+02   4.5500000e+02   4.7200000e+02   4.7200000e+02   4.8800000e+02   4.8800000e+02   4.9900000e+02   4.9900000e+02   5.0900000e+02   5.0900000e+02   5.2200000e+02   5.2200000e+02   5.4000000e+02   5.4000000e+02   5.5500000e+02   5.5500000e+02   5.6200000e+02   5.6200000e+02   5.5900000e+02   5.5900000e+02   5.6200000e+02   5.6200000e+02   5.6900000e+02   5.6900000e+02   5.7100000e+02   5.7100000e+02   5.7100000e+02   5.7100000e+02   5.7200000e+02   5.7200000e+02   5.6900000e+02   5.6900000e+02   5.6600000e+02   5.6600000e+02   5.6600000e+02   5.6600000e+02   5.6700000e+02   5.6702760e+02   5.6704091e+02   5.6702914e+02   5.6600000e+02   5.6600000e+02   5.6200000e+02   5.6200000e+02   5.5500000e+02   5.5500000e+02   5.4900000e+02   5.4900000e+02   5.4500000e+02   5.4500000e+02   5.3900000e+02   5.3900000e+02   5.3400000e+02   5.3401409e+02   5.3000000e+02
3.9419716e+01   4.2744669e+01   4.3033335e+01   4.1289008e+01   4.1514634e+01   3.1713339e+01   3.1888122e+01   2.5041676e+01   2.5177794e+01   2.4299497e+01   2.4411070e+01   2.4513919e+01   2.4611324e+01   2.5705436e+01   2.5797322e+01   2.6887139e+01   2.6973966e+01   2.7056137e+01   2.7130780e+01   3.2195039e+01   3.2245817e+01   4.6280226e+01   4.6295853e+01   5.9290200e+01   5.9262877e+01   6.9212851e+01   6.9140133e+01   7.9045877e+01   7.8932186e+01   8.7802382e+01   8.7660920e+01   9.4512503e+01   9.4362210e+01   9.5214219e+01   9.5071174e+01   9.4932987e+01   9.4797179e+01   9.8659453e+01   9.8514788e+01   1.0235805e+02   1.0218436e+02   1.0598968e+02   1.0577075e+02   1.1152539e+02   1.1125174e+02   1.1594916e+02   1.1561777e+02   1.2225902e+02   1.2187580e+02   1.3147361e+02   1.3106252e+02   1.4165980e+02   1.4129248e+02   1.5399098e+02   1.5375495e+02   1.6657669e+02   1.6644736e+02   1.7835968e+02   1.7829796e+02   1.9225259e+02   1.9221468e+02   2.0817368e+02   2.0811243e+02   2.1800000e+02   2.1800000e+02   2.2115881e+02   2.2124428e+02   2.2228779e+02   2.2230142e+02   2.2428906e+02   2.2425002e+02   2.3918156e+02   2.3908650e+02   2.5100000e+02   2.5100000e+02   2.5200000e+02   2.5200000e+02   2.5104471e+02   2.5106916e+02   2.5507262e+02   2.5504826e+02   2.5900000e+02   2.5900000e+02   2.5800000e+02   2.5801446e+02   2.5202355e+02   2.5200000e+02   2.4000000e+02   2.4000000e+02   2.3011060e+02   2.3013650e+02   2.2310370e+02   2.2300000e+02   2.1900000e+02   2.1919564e+02   2.2037639e+02   2.2050786e+02   2.2259176e+02   2.2263410e+02   2.2563964e+02   2.2561144e+02   2.3255150e+02   2.3246123e+02   2.4234457e+02   2.4221974e+02   2.5618178e+02   2.5613555e+02   2.7306696e+02   2.7300000e+02   2.9300000e+02   2.9300000e+02   3.1100000e+02   3.1100000e+02   3.2200000e+02   3.2200000e+02   3.4000000e+02   3.4000000e+02   3.6200000e+02   3.6200000e+02   3.8100000e+02   3.8100000e+02   3.9400000e+02   3.9400000e+02   4.0200000e+02   4.0200000e+02   4.1100000e+02   4.1100000e+02   4.2500000e+02   4.2500000e+02   4.4000000e+02   4.4000000e+02   4.5700000e+02   4.5700000e+02   4.7500000e+02   4.7500000e+02   4.8700000e+02   4.8700000e+02   4.9500000e+02   4.9500000e+02   5.0600000e+02   5.0600000e+02   5.2400000e+02   5.2400000e+02   5.4200000e+02   5.4200000e+02   5.5400000e+02   5.5400000e+02   5.5900000e+02   5.5900000e+02   5.5700000e+02   5.5700000e+02   5.6000000e+02   5.6000000e+02   5.6600000e+02   5.6600000e+02   5.6500000e+02   5.6500000e+02   5.6400000e+02   5.6400000e+02   5.6400000e+02   5.6400000e+02   5.6600000e+02   5.6600000e+02   5.6600000e+02   5.6600000e+02   5.6200000e+02   5.6200000e+02   5.6000000e+02   5.6003545e+02   5.6203655e+02   5.6200000e+02   5.6600000e+02   5.6600000e+02   5.6500000e+02   5.6500000e+02   5.5900000e+02   5.5900000e+02   5.5300000e+02   5.5300000e+02   5.5000000e+02   5.5000000e+02   5.4901507e+02   5.4900000e+02   5.4400000e+02   5.4400000e+02   5.3500000e+02
3.9592566e+01   4.2920324e+01   4.3212879e+01   4.1473627e+01   4.1705655e+01   3.1912081e+01   3.2096314e+01   2.5259510e+01   2.5405493e+01   2.4537338e+01   2.4657205e+01   2.4767845e+01   2.4871252e+01   2.5968901e+01   2.6061591e+01   2.7149531e+01   2.7232003e+01   2.7307601e+01   2.7374673e+01   3.2430728e+01   3.2473789e+01   4.6501185e+01   4.6511305e+01   5.9502164e+01   5.9473499e+01   6.9424625e+01   6.9355644e+01   7.9267388e+01   7.9161788e+01   8.8041059e+01   8.7908541e+01   9.4767720e+01   9.4621677e+01   9.5473482e+01   9.5324433e+01   9.5174417e+01   9.5021985e+01   9.8864152e+01   9.8697286e+01   1.0251759e+02   1.0232146e+02   1.0610613e+02   1.0586879e+02   1.1160772e+02   1.1132187e+02   1.1601094e+02   1.1567563e+02   1.2231811e+02   1.2194171e+02   1.3155201e+02   1.3115789e+02   1.4177191e+02   1.4141014e+02   1.5408800e+02   1.5381250e+02   1.6658955e+02   1.6643017e+02   1.7834245e+02   1.7828676e+02   1.9224270e+02   1.9219984e+02   2.0814618e+02   2.0807325e+02   2.1800000e+02   2.1800000e+02   2.2114830e+02   2.2124704e+02   2.2230314e+02   2.2232335e+02   2.2431025e+02   2.2426103e+02   2.3916546e+02   2.3900000e+02   2.5100000e+02   2.5100000e+02   2.5200000e+02   2.5205007e+02   2.5107535e+02   2.5107866e+02   2.5505704e+02   2.5500000e+02   2.5900000e+02   2.5900000e+02   2.5800000e+02   2.5800000e+02   2.5200000e+02   2.5200000e+02   2.4000000e+02   2.4010548e+02   2.3019025e+02   2.3023429e+02   2.2324407e+02   2.2323615e+02   2.1927030e+02   2.1937198e+02   2.2048296e+02   2.2057367e+02   2.2263457e+02   2.2266414e+02   2.2566348e+02   2.2563449e+02   2.3257972e+02   2.3250279e+02   2.4241084e+02   2.4231827e+02   2.5624872e+02   2.5617958e+02   2.7309809e+02   2.7300000e+02   2.9300000e+02   2.9300000e+02   3.1100000e+02   3.1100000e+02   3.2200000e+02   3.2200000e+02   3.4000000e+02   3.4000000e+02   3.6200000e+02   3.6200000e+02   3.8100000e+02   3.8100000e+02   3.9400000e+02   3.9400000e+02   4.0200000e+02   4.0200000e+02   4.1100000e+02   4.1100000e+02   4.2500000e+02   4.2500000e+02   4.4000000e+02   4.4000000e+02   4.5700000e+02   4.5700000e+02   4.7500000e+02   4.7500000e+02   4.8700000e+02   4.8700000e+02   4.9500000e+02   4.9500000e+02   5.0600000e+02   5.0600000e+02   5.2400000e+02   5.2400000e+02   5.4200000e+02   5.4200000e+02   5.5400000e+02   5.5400000e+02   5.5900000e+02   5.5900000e+02   5.5700000e+02   5.5700000e+02   5.6000000e+02   5.6000000e+02   5.6600000e+02   5.6600000e+02   5.6500000e+02   5.6500000e+02   5.6400000e+02   5.6400000e+02   5.6400000e+02   5.6400000e+02   5.6600000e+02   5.6600000e+02   5.6600000e+02   5.6600000e+02   5.6200000e+02   5.6200000e+02   5.6002753e+02   5.6004348e+02   5.6203551e+02   5.6200000e+02   5.6600000e+02   5.6600000e+02   5.6500000e+02   5.6500000e+02   5.5900000e+02   5.5900000e+02   5.5300000e+02   5.5300000e+02   5.5000000e+02   5.5002285e+02   5.4902598e+02   5.4900000e+02   5.4400000e+02   5.4400000e+02   5.3500000e+02
4.1769940e+01   4.5096652e+01   4.5389728e+01   4.5652503e+01   4.5888126e+01   3.7100187e+01   3.7289849e+01   2.7459736e+01   2.7612986e+01   2.5752042e+01   2.5878637e+01   2.4994681e+01   2.5102555e+01   2.6202923e+01   2.6296331e+01   2.9383022e+01   2.9462494e+01   3.1533647e+01   3.1595162e+01   3.2645504e+01   3.2682749e+01   4.1705176e+01   4.1711162e+01   5.5699902e+01   5.5670037e+01   6.7622151e+01   6.7555892e+01   7.8471979e+01   7.8371768e+01   8.7257298e+01   8.7130509e+01   9.2993615e+01   9.2849501e+01   9.3699428e+01   9.3544403e+01   9.5384297e+01   9.5217870e+01   9.9043326e+01   9.8858015e+01   1.0265901e+02   1.0244389e+02   1.0621023e+02   1.0595618e+02   1.1168056e+02   1.1138263e+02   1.1806258e+02   1.1772152e+02   1.2636168e+02   1.2598641e+02   1.3760051e+02   1.3721072e+02   1.4882544e+02   1.4845378e+02   1.6010403e+02   1.5978308e+02   1.7250445e+02   1.7230691e+02   1.8525878e+02   1.8522952e+02   2.0219722e+02   2.0216144e+02   2.1810356e+02   2.1800000e+02   2.2500000e+02   2.2500000e+02   2.2815299e+02   2.2825807e+02   2.2931998e+02   2.2934426e+02   2.3133318e+02   2.3128402e+02   2.3918492e+02   2.3900000e+02   2.4600000e+02   2.4606091e+02   2.5407680e+02   2.5409061e+02   2.6009358e+02   2.6007873e+02   2.6304252e+02   2.6300000e+02   2.6500000e+02   2.6500000e+02   2.6400000e+02   2.6400000e+02   2.5500000e+02   2.5500000e+02   2.3910268e+02   2.3919739e+02   2.2427626e+02   2.2433198e+02   2.1636780e+02   2.1639593e+02   2.1543879e+02   2.1550465e+02   2.1857541e+02   2.1863493e+02   2.1967435e+02   2.1969005e+02   2.2568129e+02   2.2564902e+02   2.3859558e+02   2.3852500e+02   2.4944335e+02   2.4935938e+02   2.5928089e+02   2.5920156e+02   2.7011154e+02   2.7000000e+02   2.8800000e+02   2.8800000e+02   3.0900000e+02   3.0900000e+02   3.2300000e+02   3.2300000e+02   3.4200000e+02   3.4200000e+02   3.6500000e+02   3.6500000e+02   3.8100000e+02   3.8100000e+02   3.8700000e+02   3.8700000e+02   3.9200000e+02   3.9200000e+02   4.0400000e+02   4.0400000e+02   4.2100000e+02   4.2100000e+02   4.4100000e+02   4.4100000e+02   4.5800000e+02   4.5800000e+02   4.7400000e+02   4.7400000e+02   4.8600000e+02   4.8600000e+02   4.9500000e+02   4.9500000e+02   5.0700000e+02   5.0700000e+02   5.2300000e+02   5.2300000e+02   5.3900000e+02   5.3900000e+02   5.4900000e+02   5.4900000e+02   5.5700000e+02   5.5700000e+02   5.5600000e+02   5.5600000e+02   5.5300000e+02   5.5300000e+02   5.6000000e+02   5.6000000e+02   5.5800000e+02   5.5800000e+02   5.5300000e+02   5.5300000e+02   5.5200000e+02   5.5200000e+02   5.5200000e+02   5.5200000e+02   5.5300000e+02   5.5300000e+02   5.5500000e+02   5.5500000e+02   5.5803270e+02   5.5804102e+02   5.6302769e+02   5.6300000e+02   5.6600000e+02   5.6600000e+02   5.6400000e+02   5.6400000e+02   5.5800000e+02   5.5800000e+02   5.5200000e+02   5.5200000e+02   5.5100000e+02   5.5103112e+02   5.5503167e+02   5.5500000e+02   5.5100000e+02   5.5100000e+02   5.3800000e+02
4.1950293e+01   4.5272234e+01   4.5562461e+01   4.5824398e+01   4.6061665e+01   3.7275248e+01   3.7468274e+01   2.7642455e+01   2.7800433e+01   2.5944310e+01   2.6075752e+01   2.5196334e+01   2.5307217e+01   2.6409441e+01   2.6503251e+01   2.9589211e+01   2.9666632e+01   3.1734813e+01   3.1792565e+01   3.2838759e+01   3.2871888e+01   4.1890802e+01   4.1894128e+01   5.5881069e+01   5.5850775e+01   6.7803617e+01   6.7739408e+01   7.8658512e+01   7.8562077e+01   8.7451226e+01   8.7327733e+01   9.3192911e+01   9.3048512e+01   9.3895680e+01   9.3734873e+01   9.5565815e+01   9.5387633e+01   9.9198907e+01   9.8997867e+01   1.0278241e+02   1.0255040e+02   1.0630033e+02   1.0603098e+02   1.1174132e+02   1.1143108e+02   1.1810092e+02   1.1775198e+02   1.2638643e+02   1.2600729e+02   1.3761847e+02   1.3722469e+02   1.4883090e+02   1.4844108e+02   1.6005692e+02   1.5967697e+02   1.7230384e+02   1.7200000e+02   1.8512182e+02   1.8514093e+02   2.0212083e+02   2.0211076e+02   2.1807222e+02   2.1800000e+02   2.2500000e+02   2.2500000e+02   2.2817124e+02   2.2827787e+02   2.2934012e+02   2.2936614e+02   2.3135981e+02   2.3132260e+02   2.3925589e+02   2.3917099e+02   2.4613765e+02   2.4613256e+02   2.5412134e+02   2.5410761e+02   2.6009524e+02   2.6006580e+02   2.6300000e+02   2.6300000e+02   2.6500000e+02   2.6500000e+02   2.6400000e+02   2.6400000e+02   2.5500000e+02   2.5508495e+02   2.3917904e+02   2.3927075e+02   2.2435106e+02   2.2441522e+02   2.1646481e+02   2.1650661e+02   2.1554992e+02   2.1559805e+02   2.1864474e+02   2.1868191e+02   2.1970350e+02   2.1970605e+02   2.2568823e+02   2.2565037e+02   2.3859437e+02   2.3852382e+02   2.4944380e+02   2.4936062e+02   2.5927952e+02   2.5919982e+02   2.7011225e+02   2.7000000e+02   2.8800000e+02   2.8800000e+02   3.0900000e+02   3.0900000e+02   3.2300000e+02   3.2300000e+02   3.4200000e+02   3.4200000e+02   3.6500000e+02   3.6500000e+02   3.8100000e+02   3.8100000e+02   3.8700000e+02   3.8700000e+02   3.9200000e+02   3.9200000e+02   4.0400000e+02   4.0400000e+02   4.2100000e+02   4.2100000e+02   4.4100000e+02   4.4100000e+02   4.5800000e+02   4.5800000e+02   4.7400000e+02   4.7400000e+02   4.8600000e+02   4.8600000e+02   4.9500000e+02   4.9500000e+02   5.0700000e+02   5.0700000e+02   5.2300000e+02   5.2300000e+02   5.3900000e+02   5.3900000e+02   5.4900000e+02   5.4900000e+02   5.5700000e+02   5.5700000e+02   5.5600000e+02   5.5600000e+02   5.5300000e+02   5.5300000e+02   5.6000000e+02   5.6000000e+02   5.5800000e+02   5.5800000e+02   5.5300000e+02   5.5300000e+02   5.5200000e+02   5.5200000e+02   5.5200000e+02   5.5200000e+02   5.5300000e+02   5.5300000e+02   5.5500000e+02   5.5500000e+02   5.5802809e+02   5.5802582e+02   5.6300000e+02   5.6300000e+02   5.6600000e+02   5.6600000e+02   5.6400000e+02   5.6400000e+02   5.5800000e+02   5.5800000e+02   5.5200000e+02   5.5200000e+02   5.5100000e+02   5.5103561e+02   5.5503523e+02   5.5500000e+02   5.5100000e+02   5.5100000e+02   5.3800000e+02
4.5131470e+01   4.7444906e+01   4.7729324e+01   4.7988418e+01   4.8223393e+01   4.1436667e+01   4.1630442e+01   3.1806844e+01   3.1967664e+01   2.6114713e+01   2.6249377e+01   2.5372774e+01   2.5485959e+01   2.6589755e+01   2.6684292e+01   2.8769520e+01   2.8845679e+01   3.6911838e+01   3.6967132e+01   4.4010631e+01   4.4041154e+01   4.7057623e+01   4.7059255e+01   5.1045083e+01   5.1014477e+01   5.9968047e+01   5.9905166e+01   6.9826432e+01   6.9732331e+01   7.8623819e+01   7.8501866e+01   8.6367729e+01   8.6222354e+01   9.1065817e+01   9.0899246e+01   9.5722143e+01   9.5533597e+01   9.9332596e+01   9.9117783e+01   1.0288766e+02   1.0264064e+02   1.0737558e+02   1.0709161e+02   1.1478818e+02   1.1446525e+02   1.2212369e+02   1.2176467e+02   1.3139041e+02   1.3100342e+02   1.4560706e+02   1.4520442e+02   1.6079802e+02   1.6038832e+02   1.7697120e+02   1.7652963e+02   1.9000000e+02   1.9000000e+02   2.0005332e+02   2.0005717e+02   2.1100000e+02   2.1105415e+02   2.2104019e+02   2.2100000e+02   2.2500000e+02   2.2510244e+02   2.2721974e+02   2.2730769e+02   2.3036212e+02   2.3038601e+02   2.3338295e+02   2.3335630e+02   2.3831066e+02   2.3825611e+02   2.4921272e+02   2.4917595e+02   2.6113402e+02   2.6108889e+02   2.6707958e+02   2.6705489e+02   2.7000000e+02   2.7000000e+02   2.6900000e+02   2.6900000e+02   2.6300000e+02   2.6300000e+02   2.5305254e+02   2.5312648e+02   2.3722339e+02   2.3732115e+02   2.2140764e+02   2.2147867e+02   2.1353526e+02   2.1358142e+02   2.1362185e+02   2.1365850e+02   2.1668924e+02   2.1671011e+02   2.2071731e+02   2.2070806e+02   2.2668083e+02   2.2663548e+02   2.3657340e+02   2.3649770e+02   2.4841301e+02   2.4832540e+02   2.6124236e+02   2.6117157e+02   2.7110337e+02   2.7103429e+02   2.8600000e+02   2.8600000e+02   3.0600000e+02   3.0600000e+02   3.2400000e+02   3.2400000e+02   3.4200000e+02   3.4200000e+02   3.6000000e+02   3.6000000e+02   3.7100000e+02   3.7100000e+02   3.7700000e+02   3.7700000e+02   3.8400000e+02   3.8400000e+02   3.9900000e+02   3.9900000e+02   4.1600000e+02   4.1600000e+02   4.3600000e+02   4.3600000e+02   4.5400000e+02   4.5400000e+02   4.7200000e+02   4.7200000e+02   4.8700000e+02   4.8700000e+02   4.9800000e+02   4.9800000e+02   5.0900000e+02   5.0900000e+02   5.1800000e+02   5.1800000e+02   5.2900000e+02   5.2900000e+02   5.4100000e+02   5.4100000e+02   5.4700000e+02   5.4700000e+02   5.4600000e+02   5.4600000e+02   5.4900000e+02   5.4900000e+02   5.6000000e+02   5.6000000e+02   5.5600000e+02   5.5600000e+02   5.4500000e+02   5.4500000e+02   5.4200000e+02   5.4200000e+02   5.4400000e+02   5.4400000e+02   5.4600000e+02   5.4600000e+02   5.5200000e+02   5.5201652e+02   5.5901967e+02   5.5900000e+02   5.6300000e+02   5.6300000e+02   5.6300000e+02   5.6300000e+02   5.6000000e+02   5.6000000e+02   5.5500000e+02   5.5500000e+02   5.4800000e+02   5.4800000e+02   5.4600000e+02   5.4604176e+02   5.5103930e+02   5.5100000e+02   5.5300000e+02   5.5300000e+02   5.4200000e+02
4.5310633e+01   4.7612262e+01   4.7889210e+01   4.8141376e+01   4.8371956e+01   4.1582854e+01   4.1775762e+01   3.1952520e+01   3.2114510e+01   2.6263182e+01   2.6399659e+01   2.5524890e+01   2.5639787e+01   2.6744707e+01   2.6839870e+01   2.8925393e+01   2.9000657e+01   3.7065427e+01   3.7119299e+01   4.4161155e+01   4.4190165e+01   4.7205242e+01   4.7205738e+01   5.1191263e+01   5.1161162e+01   6.0114743e+01   6.0052852e+01   6.9975418e+01   6.9882902e+01   7.8775584e+01   7.8654271e+01   8.6519688e+01   8.6372272e+01   9.1211946e+01   9.1040029e+01   9.5855504e+01   9.5657734e+01   9.9445870e+01   9.9218791e+01   1.0297537e+02   1.0271457e+02   1.0743544e+02   1.0713747e+02   1.1482014e+02   1.1448383e+02   1.2212939e+02   1.2175837e+02   1.3137258e+02   1.3097469e+02   1.4556754e+02   1.4515358e+02   1.6073406e+02   1.6030861e+02   1.7687556e+02   1.7643621e+02   1.9000000e+02   1.9000000e+02   2.0000000e+02   2.0000000e+02   2.1100000e+02   2.1103126e+02   2.2100000e+02   2.2100000e+02   2.2500000e+02   2.2515566e+02   2.2726324e+02   2.2733663e+02   2.3038031e+02   2.3039847e+02   2.3339530e+02   2.3337463e+02   2.3833998e+02   2.3829570e+02   2.4924680e+02   2.4919014e+02   2.6111553e+02   2.6100000e+02   2.6704495e+02   2.6703981e+02   2.7000000e+02   2.7000000e+02   2.6900000e+02   2.6900000e+02   2.6300000e+02   2.6300000e+02   2.5304937e+02   2.5311067e+02   2.3723253e+02   2.3734847e+02   2.2144532e+02   2.2152222e+02   2.1358174e+02   2.1362757e+02   2.1366320e+02   2.1369051e+02   2.1670924e+02   2.1671760e+02   2.2071321e+02   2.2069368e+02   2.2665720e+02   2.2660296e+02   2.3653173e+02   2.3644614e+02   2.4835072e+02   2.4825124e+02   2.6115857e+02   2.6110635e+02   2.7106095e+02   2.7100000e+02   2.8600000e+02   2.8600000e+02   3.0600000e+02   3.0600000e+02   3.2400000e+02   3.2400000e+02   3.4200000e+02   3.4200000e+02   3.6000000e+02   3.6000000e+02   3.7100000e+02   3.7100000e+02   3.7700000e+02   3.7700000e+02   3.8400000e+02   3.8400000e+02   3.9900000e+02   3.9900000e+02   4.1600000e+02   4.1600000e+02   4.3600000e+02   4.3600000e+02   4.5400000e+02   4.5400000e+02   4.7200000e+02   4.7200000e+02   4.8700000e+02   4.8700000e+02   4.9800000e+02   4.9800000e+02   5.0900000e+02   5.0900000e+02   5.1800000e+02   5.1800000e+02   5.2900000e+02   5.2900000e+02   5.4100000e+02   5.4100000e+02   5.4700000e+02   5.4700000e+02   5.4600000e+02   5.4600000e+02   5.4900000e+02   5.4900000e+02   5.6000000e+02   5.6000000e+02   5.5600000e+02   5.5600000e+02   5.4500000e+02   5.4500000e+02   5.4202054e+02   5.4200000e+02   5.4400000e+02   5.4400000e+02   5.4600000e+02   5.4600000e+02   5.5200000e+02   5.5201255e+02   5.5900000e+02   5.5900000e+02   5.6300000e+02   5.6300000e+02   5.6300000e+02   5.6300000e+02   5.6000000e+02   5.6000000e+02   5.5500000e+02   5.5500000e+02   5.4800000e+02   5.4800000e+02   5.4603742e+02   5.4605777e+02   5.5104589e+02   5.5100000e+02   5.5300000e+02   5.5300000e+02   5.4200000e+02
5.2483991e+01   5.1772324e+01   5.2037501e+01   5.0281296e+01   5.0505581e+01   4.5712470e+01   4.5903611e+01   3.5079121e+01   3.5241018e+01   2.7390280e+01   2.7527763e+01   2.5654146e+01   2.5770244e+01   2.5876176e+01   2.5972079e+01   2.8056569e+01   2.8132178e+01   3.5196546e+01   3.5249758e+01   4.5290496e+01   4.5318732e+01   4.8333172e+01   4.8333362e+01   4.8318596e+01   4.8288630e+01   5.4242769e+01   5.4181758e+01   6.4105339e+01   6.4013597e+01   7.2906910e+01   7.2785593e+01   8.0649966e+01   8.0500336e+01   8.9336726e+01   8.9159119e+01   9.5967761e+01   9.5761609e+01   1.0053993e+02   1.0030179e+02   1.0504610e+02   1.0477248e+02   1.1048001e+02   1.1016810e+02   1.1883674e+02   1.1848622e+02   1.2711758e+02   1.2673233e+02   1.3633249e+02   1.3592089e+02   1.5050047e+02   1.5007380e+02   1.7264165e+02   1.7220213e+02   1.9675183e+02   1.9630547e+02   2.0700000e+02   2.0700000e+02   2.1100000e+02   2.1100000e+02   2.1700000e+02   2.1703645e+02   2.2100000e+02   2.2100000e+02   2.2210964e+02   2.2222260e+02   2.2430654e+02   2.2436092e+02   2.2938966e+02   2.2939787e+02   2.3439080e+02   2.3437258e+02   2.4234454e+02   2.4230556e+02   2.5525426e+02   2.5518789e+02   2.6610364e+02   2.6600000e+02   2.7102608e+02   2.7102505e+02   2.7400000e+02   2.7400000e+02   2.7200000e+02   2.7200000e+02   2.6500000e+02   2.6500000e+02   2.5500000e+02   2.5500000e+02   2.3621320e+02   2.3636050e+02   2.1946858e+02   2.1954878e+02   2.1360755e+02   2.1364957e+02   2.1367850e+02   2.1369674e+02   2.1670523e+02   2.1670350e+02   2.2368987e+02   2.2366190e+02   2.2961694e+02   2.2955308e+02   2.3847004e+02   2.3837013e+02   2.4925805e+02   2.4913589e+02   2.6300000e+02   2.6300000e+02   2.7300000e+02   2.7300000e+02   2.8600000e+02   2.8600000e+02   3.0500000e+02   3.0500000e+02   3.1900000e+02   3.1900000e+02   3.3600000e+02   3.3600000e+02   3.5000000e+02   3.5000000e+02   3.6000000e+02   3.6000000e+02   3.7000000e+02   3.7000000e+02   3.8200000e+02   3.8200000e+02   3.9900000e+02   3.9900000e+02   4.2200000e+02   4.2200000e+02   4.4400000e+02   4.4400000e+02   4.6000000e+02   4.6000000e+02   4.7500000e+02   4.7500000e+02   4.8700000e+02   4.8700000e+02   4.9700000e+02   4.9700000e+02   5.0400000e+02   5.0400000e+02   5.1100000e+02   5.1100000e+02   5.2100000e+02   5.2100000e+02   5.2900000e+02   5.2900000e+02   5.3300000e+02   5.3300000e+02   5.4100000e+02   5.4100000e+02   5.4700000e+02   5.4700000e+02   5.5600000e+02   5.5600000e+02   5.5100000e+02   5.5100000e+02   5.4000000e+02   5.4003411e+02   5.3904824e+02   5.3903398e+02   5.4300000e+02   5.4300000e+02   5.5000000e+02   5.5000000e+02   5.5600000e+02   5.5600000e+02   5.6200000e+02   5.6200000e+02   5.6400000e+02   5.6400000e+02   5.6000000e+02   5.6000000e+02   5.5301405e+02   5.5300000e+02   5.5000857e+02   5.5000000e+02   5.4300000e+02   5.4300000e+02   5.4105760e+02   5.4107164e+02   5.4905214e+02   5.4900000e+02   5.5900000e+02   5.5900000e+02   5.5200000e+02
5.2647790e+01   5.1920238e+01   5.2172321e+01   5.0405862e+01   5.0623492e+01   4.5825016e+01   4.6011610e+01   3.5185011e+01   3.5345681e+01   2.7494594e+01   2.7632278e+01   2.5759464e+01   2.5876569e+01   2.5983427e+01   2.6080122e+01   2.8165524e+01   2.8241384e+01   3.5306027e+01   3.5359144e+01   4.5399929e+01   4.5427576e+01   4.8440582e+01   4.8440947e+01   4.8426636e+01   4.8397308e+01   5.4352005e+01   5.4291763e+01   6.4216128e+01   6.4124913e+01   7.3018401e+01   7.2896766e+01   8.0759903e+01   8.0607697e+01   8.9441001e+01   8.9258585e+01   9.6060449e+01   9.5846612e+01   1.0061599e+02   1.0036770e+02   1.0510084e+02   1.0481501e+02   1.1050957e+02   1.1018394e+02   1.1883809e+02   1.1847248e+02   1.2708806e+02   1.2668639e+02   1.3626987e+02   1.3584157e+02   1.5040534e+02   1.4996501e+02   1.7252229e+02   1.7207205e+02   1.9658975e+02   1.9600000e+02   2.0700000e+02   2.0700000e+02   2.1100000e+02   2.1100000e+02   2.1706168e+02   2.1708008e+02   2.2100000e+02   2.2100000e+02   2.2218159e+02   2.2228408e+02   2.2434513e+02   2.2437650e+02   2.2938516e+02   2.2937820e+02   2.3436305e+02   2.3434598e+02   2.4232569e+02   2.4229337e+02   2.5524240e+02   2.5516918e+02   2.6607678e+02   2.6600000e+02   2.7100000e+02   2.7100000e+02   2.7400000e+02   2.7400000e+02   2.7200000e+02   2.7200000e+02   2.6500000e+02   2.6500000e+02   2.5500000e+02   2.5500000e+02   2.3622546e+02   2.3637738e+02   2.1948538e+02   2.1956241e+02   2.1361572e+02   2.1365030e+02   2.1367014e+02   2.1367835e+02   2.1667707e+02   2.1666692e+02   2.2364654e+02   2.2361273e+02   2.2956123e+02   2.2948801e+02   2.3839087e+02   2.3827193e+02   2.4914104e+02   2.4900000e+02   2.6300000e+02   2.6300000e+02   2.7300000e+02   2.7300000e+02   2.8600000e+02   2.8600000e+02   3.0500000e+02   3.0500000e+02   3.1900000e+02   3.1900000e+02   3.3600000e+02   3.3600000e+02   3.5000000e+02   3.5000000e+02   3.6000000e+02   3.6000000e+02   3.7000000e+02   3.7000000e+02   3.8200000e+02   3.8200000e+02   3.9900000e+02   3.9900000e+02   4.2200000e+02   4.2200000e+02   4.4400000e+02   4.4400000e+02   4.6000000e+02   4.6000000e+02   4.7500000e+02   4.7500000e+02   4.8700000e+02   4.8700000e+02   4.9700000e+02   4.9700000e+02   5.0400000e+02   5.0400000e+02   5.1100000e+02   5.1100000e+02   5.2100000e+02   5.2100000e+02   5.2900000e+02   5.2900000e+02   5.3300000e+02   5.3300000e+02   5.4100000e+02   5.4100000e+02   5.4700000e+02   5.4700000e+02   5.5600000e+02   5.5600000e+02   5.5100000e+02   5.5100000e+02   5.4000000e+02   5.4005410e+02   5.3906995e+02   5.3905349e+02   5.4300000e+02   5.4300000e+02   5.5000000e+02   5.5000000e+02   5.5600000e+02   5.5600000e+02   5.6200000e+02   5.6200000e+02   5.6400000e+02   5.6400000e+02   5.6000000e+02   5.6001974e+02   5.5302198e+02   5.5300000e+02   5.5000000e+02   5.5003554e+02   5.4305533e+02   5.4306873e+02   5.4108698e+02   5.4108469e+02   5.4905669e+02   5.4900000e+02   5.5900000e+02   5.5900000e+02   5.5200000e+02
