2.0446891e+01   2.0761644e+01   2.0142053e+01   2.0586632e+01   2.2000000e+01   2.2000000e+01   3.0000000e+01   3.0000000e+01   4.4000000e+01   4.4000000e+01   5.4000000e+01   5.4000000e+01   6.5000000e+01   6.5000000e+01   7.3000000e+01   7.3000000e+01   7.0459635e+01   7.0052509e+01   7.1791829e+01   7.1655620e+01   7.3629490e+01   7.3699475e+01   7.9838807e+01   7.9972491e+01   8.6886875e+01   8.6536239e+01   8.9128148e+01   8.8751437e+01   8.8436672e+01   8.8192928e+01   8.9020830e+01   8.8917967e+01   8.9880181e+01   8.9901573e+01   9.1973726e+01   9.2084557e+01   9.5217612e+01   9.5353407e+01   1.0347625e+02   1.0358650e+02   1.1469909e+02   1.1483084e+02   1.2899361e+02   1.2919277e+02   1.4942731e+02   1.4969006e+02   1.7796682e+02   1.7823567e+02   2.0246861e+02   2.0264879e+02   2.1480355e+02   2.1495303e+02   2.2800000e+02   2.2800000e+02   2.3100000e+02   2.3100000e+02   2.2500000e+02   2.2500000e+02   2.1596097e+02   2.1589289e+02   2.2086101e+02   2.2087712e+02   2.2894657e+02   2.3300000e+02   2.4100000e+02   2.4100000e+02   2.5300000e+02   2.5300000e+02   2.6400000e+02   2.6400000e+02   2.6800000e+02   2.6800000e+02   2.6200000e+02   2.6200000e+02   2.5000000e+02   2.5000000e+02   2.3400000e+02   2.3400000e+02   2.1800000e+02   2.1800000e+02   2.0700000e+02   2.0700000e+02   2.0200000e+02   2.0200000e+02   2.0100000e+02   2.0100000e+02   2.0200000e+02   2.0200000e+02   2.0400000e+02   2.0400000e+02   2.0600000e+02   2.0600000e+02   2.0095781e+02   2.0087903e+02   1.9783847e+02   1.9784351e+02   1.9689525e+02   1.9697924e+02   2.0100000e+02   2.0100000e+02   2.0100000e+02   2.0100000e+02   2.0100000e+02   2.0100000e+02   2.0100000e+02   2.0100000e+02   2.0100000e+02   2.0100000e+02   2.0100000e+02   2.0100000e+02   2.0204262e+02   2.0205461e+02   2.1400000e+02   2.1400000e+02   2.1700000e+02   2.1700000e+02   2.1300000e+02   2.1300000e+02   2.0996742e+02   2.0986493e+02   2.1882000e+02   2.1884580e+02   2.3494569e+02   2.3900000e+02   2.4500000e+02   2.4500000e+02   2.3594641e+02   2.3582250e+02   2.3575912e+02   2.3576463e+02   2.4683971e+02   2.4696788e+02   2.6400000e+02   2.6000706e+02   2.7200434e+02   2.7600000e+02   2.8600000e+02   2.8600000e+02   2.9200000e+02   2.8799323e+02   2.8789685e+02   2.8784115e+02   2.8783960e+02   2.8788986e+02   2.9397734e+02   2.9800000e+02   3.0100000e+02   3.0100000e+02   2.9900000e+02   2.9490526e+02   2.9573563e+02   2.9560960e+02   3.0154244e+02   3.0153916e+02   3.0859872e+02   3.0871690e+02   3.1588825e+02   3.2000000e+02   3.2300000e+02   3.1879368e+02   3.2356738e+02   3.2341216e+02   3.3331287e+02   3.3325804e+02   3.4224078e+02   3.4225588e+02   3.4829593e+02   3.4834645e+02   3.5138020e+02   3.5136198e+02   3.5231982e+02   3.5228197e+02   3.6026497e+02   3.6027635e+02   3.7331879e+02   3.7339368e+02   3.8750377e+02   3.8765317e+02   4.0184390e+02   4.0600000e+02   4.2000000e+02   4.2000000e+02   4.3100000e+02   4.3100000e+02   4.4200000e+02   4.4200000e+02
2.1490485e+01   2.1799823e+01   1.9169507e+01   1.9599047e+01   2.4000000e+01   2.4000000e+01   3.4000000e+01   3.4000000e+01   4.7000000e+01   4.7000000e+01   5.8000000e+01   5.8000000e+01   6.8000000e+01   6.8000000e+01   7.7000000e+01   7.2862007e+01   7.4523517e+01   7.4232333e+01   7.5041795e+01   7.4965904e+01   7.8011166e+01   7.8186860e+01   8.5503089e+01   9.0000000e+01   9.6000000e+01   9.1293576e+01   9.1695680e+01   9.1206997e+01   9.0827016e+01   9.0545454e+01   9.0353452e+01   9.0243954e+01   9.1210656e+01   9.1246858e+01   9.2343218e+01   9.2485425e+01   9.5650252e+01   9.5803302e+01   1.0390841e+02   1.0396733e+02   1.1601476e+02   1.1608067e+02   1.3018154e+02   1.3032267e+02   1.4650142e+02   1.4670916e+02   1.6793228e+02   1.6815409e+02   1.8935904e+02   1.8954208e+02   2.0671625e+02   2.0689619e+02   2.2700000e+02   2.2700000e+02   2.3400000e+02   2.3400000e+02   2.3000000e+02   2.3000000e+02   2.2200000e+02   2.1796120e+02   2.2090963e+02   2.2089916e+02   2.2993596e+02   2.3000460e+02   2.3900000e+02   2.3900000e+02   2.5000000e+02   2.5000000e+02   2.6200000e+02   2.6200000e+02   2.6300000e+02   2.6300000e+02   2.5500000e+02   2.5500000e+02   2.4700000e+02   2.4700000e+02   2.3300000e+02   2.3300000e+02   2.1600000e+02   2.1600000e+02   2.0800000e+02   2.0800000e+02   2.0200000e+02   2.0200000e+02   2.0100000e+02   2.0100000e+02   2.0100000e+02   2.0100000e+02   2.0100000e+02   2.0100000e+02   2.0100000e+02   2.0100000e+02   1.9697903e+02   1.9692198e+02   1.9689267e+02   1.9690112e+02   1.9695309e+02   2.0100000e+02   2.0100000e+02   2.0100000e+02   2.0100000e+02   2.0100000e+02   2.0100000e+02   2.0100000e+02   2.0100000e+02   2.0100000e+02   2.0300000e+02   2.0300000e+02   2.0700000e+02   2.0700000e+02   2.0602796e+02   2.0602440e+02   2.2000000e+02   2.2000000e+02   2.2700000e+02   2.2700000e+02   2.2700000e+02   2.2700000e+02   2.1994584e+02   2.1983756e+02   2.1979607e+02   2.1983031e+02   2.3693954e+02   2.4100000e+02   2.5400000e+02   2.5400000e+02   2.4495749e+02   2.4483224e+02   2.3775380e+02   2.3773284e+02   2.4077251e+02   2.4087220e+02   2.5300000e+02   2.4893379e+02   2.6092850e+02   2.6099807e+02   2.8200000e+02   2.8200000e+02   2.8800000e+02   2.8800000e+02   2.8093967e+02   2.8084835e+02   2.7781224e+02   2.7783501e+02   2.8191838e+02   2.8600000e+02   2.9300000e+02   2.9300000e+02   2.9600000e+02   2.9194796e+02   2.9275887e+02   2.9260236e+02   2.9750676e+02   2.9747773e+02   3.0751429e+02   3.0761531e+02   3.1778674e+02   3.2200000e+02   3.2800000e+02   3.2376822e+02   3.2757560e+02   3.2744309e+02   3.3135020e+02   3.3128607e+02   3.3624657e+02   3.3622943e+02   3.4023038e+02   3.4024078e+02   3.4324799e+02   3.4324189e+02   3.4823148e+02   3.4823042e+02   3.5624860e+02   3.5629007e+02   3.7035455e+02   3.7044116e+02   3.8755311e+02   3.8769593e+02   4.0187189e+02   4.0600000e+02   4.1800000e+02   4.1800000e+02   4.3000000e+02   4.3000000e+02   4.4000000e+02   4.4000000e+02
2.1522925e+01   2.1819766e+01   1.9170738e+01   1.9579920e+01   2.4000000e+01   2.4000000e+01   3.4000000e+01   3.4000000e+01   4.7000000e+01   4.7000000e+01   5.8000000e+01   5.8000000e+01   6.8000000e+01   6.8000000e+01   7.7000000e+01   7.2831741e+01   7.4572203e+01   7.4359153e+01   7.5229736e+01   7.5205692e+01   7.8305179e+01   7.8556281e+01   9.0000000e+01   9.0000000e+01   9.6000000e+01   9.6000000e+01   9.2159318e+01   9.1580328e+01   9.1155111e+01   9.0849562e+01   9.0647263e+01   9.0538586e+01   9.1516764e+01   9.1575886e+01   9.2708622e+01   9.2902509e+01   9.6130777e+01   9.6336103e+01   1.0442252e+02   1.0439787e+02   1.1635411e+02   1.1634145e+02   1.3037782e+02   1.3046520e+02   1.4659762e+02   1.4676432e+02   1.6795109e+02   1.6814250e+02   1.8932614e+02   1.8949960e+02   2.0667445e+02   2.0686635e+02   2.2700000e+02   2.2700000e+02   2.3400000e+02   2.3400000e+02   2.3000000e+02   2.3000000e+02   2.2200000e+02   2.2200000e+02   2.2097219e+02   2.2093835e+02   2.2994724e+02   2.2999876e+02   2.3900000e+02   2.3900000e+02   2.5000000e+02   2.5000000e+02   2.6200000e+02   2.6200000e+02   2.6300000e+02   2.6300000e+02   2.5500000e+02   2.5500000e+02   2.4700000e+02   2.4700000e+02   2.3300000e+02   2.3300000e+02   2.1600000e+02   2.1600000e+02   2.0800000e+02   2.0800000e+02   2.0200000e+02   2.0200000e+02   2.0100000e+02   2.0100000e+02   2.0100000e+02   2.0100000e+02   2.0100000e+02   2.0100000e+02   2.0100000e+02   2.0100000e+02   2.0100000e+02   1.9698135e+02   1.9696758e+02   1.9697326e+02   1.9699792e+02   2.0100000e+02   2.0100000e+02   2.0100000e+02   2.0100000e+02   2.0100000e+02   2.0100000e+02   2.0100000e+02   2.0100000e+02   2.0100000e+02   2.0300000e+02   2.0300000e+02   2.0700000e+02   2.0700000e+02   2.0600919e+02   2.0598143e+02   2.1600829e+02   2.2000000e+02   2.2700000e+02   2.2700000e+02   2.2700000e+02   2.2700000e+02   2.1992580e+02   2.1980935e+02   2.1976738e+02   2.1980573e+02   2.3692221e+02   2.4100000e+02   2.5400000e+02   2.5400000e+02   2.4498996e+02   2.4485985e+02   2.3776004e+02   2.3770813e+02   2.4070619e+02   2.4074698e+02   2.4880353e+02   2.4880288e+02   2.6083367e+02   2.6092418e+02   2.8200000e+02   2.8200000e+02   2.8800000e+02   2.8800000e+02   2.8098277e+02   2.8086753e+02   2.7779583e+02   2.7778537e+02   2.8183774e+02   2.8194312e+02   2.9300000e+02   2.9300000e+02   2.9600000e+02   2.9600000e+02   2.9279173e+02   2.9259009e+02   2.9746546e+02   2.9741268e+02   3.0742520e+02   3.0749567e+02   3.1761234e+02   3.1773951e+02   3.2376093e+02   3.2366921e+02   3.2757242e+02   3.2749082e+02   3.3141746e+02   3.3134846e+02   3.3628853e+02   3.3624247e+02   3.4021150e+02   3.4019325e+02   3.4318367e+02   3.4318088e+02   3.4818955e+02   3.4821677e+02   3.5626721e+02   3.5634000e+02   3.7042818e+02   3.7052355e+02   3.8763020e+02   3.8775676e+02   4.0190712e+02   4.0600000e+02   4.1800000e+02   4.1800000e+02   4.3000000e+02   4.3000000e+02   4.4000000e+02   4.4000000e+02
1.8550628e+01   1.8829953e+01   1.7152017e+01   1.7506866e+01   2.2859056e+01   2.7000000e+01   3.9000000e+01   3.9000000e+01   4.6074652e+01   4.6071356e+01   6.1000000e+01   6.1000000e+01   7.3000000e+01   7.3000000e+01   8.0000000e+01   7.5842323e+01   7.6623446e+01   7.6457773e+01   7.8369648e+01   7.8376928e+01   8.3493438e+01   8.3728123e+01   9.5000000e+01   9.5000000e+01   9.8000000e+01   9.8000000e+01   9.4375735e+01   9.3825188e+01   9.3400272e+01   9.3092526e+01   9.2892193e+01   9.2792001e+01   9.2787154e+01   9.2874766e+01   9.3052990e+01   9.3318960e+01   9.7659959e+01   9.8009503e+01   1.0607037e+02   1.0587610e+02   1.1770020e+02   1.1759817e+02   1.3157235e+02   1.3161425e+02   1.4871242e+02   1.4885315e+02   1.6702009e+02   1.6719509e+02   1.8636173e+02   1.8651459e+02   2.0466969e+02   2.0484831e+02   2.2700000e+02   2.2700000e+02   2.3900000e+02   2.3900000e+02   2.3700000e+02   2.3700000e+02   2.2800000e+02   2.2800000e+02   2.2600000e+02   2.2199100e+02   2.2797819e+02   2.2801173e+02   2.3700000e+02   2.3700000e+02   2.4600000e+02   2.4600000e+02   2.6000000e+02   2.6000000e+02   2.6200000e+02   2.6200000e+02   2.5500000e+02   2.5500000e+02   2.4400000e+02   2.4400000e+02   2.3000000e+02   2.3000000e+02   2.1700000e+02   2.1700000e+02   2.0800000e+02   2.0800000e+02   2.0200000e+02   2.0200000e+02   2.0100000e+02   2.0100000e+02   2.0100000e+02   2.0100000e+02   2.0100000e+02   2.0100000e+02   2.0100000e+02   2.0100000e+02   2.0100000e+02   2.0100000e+02   2.0100000e+02   2.0100000e+02   2.0100000e+02   2.0100000e+02   2.0100000e+02   2.0100000e+02   2.0100000e+02   2.0100000e+02   2.0100000e+02   2.0100000e+02   2.0400000e+02   2.0400000e+02   2.1300000e+02   2.1300000e+02   2.1700000e+02   2.1700000e+02   2.1199496e+02   2.1194618e+02   2.1793576e+02   2.1795825e+02   2.2699225e+02   2.3100000e+02   2.3700000e+02   2.3700000e+02   2.3289348e+02   2.3276921e+02   2.2972710e+02   2.2976714e+02   2.3888692e+02   2.4300000e+02   2.5900000e+02   2.5900000e+02   2.5800000e+02   2.5391230e+02   2.4478463e+02   2.4470104e+02   2.3966048e+02   2.3965562e+02   2.4067117e+02   2.4069107e+02   2.5273948e+02   2.5283247e+02   2.7096303e+02   2.7500000e+02   2.8500000e+02   2.8500000e+02   2.8400000e+02   2.7989891e+02   2.7378567e+02   2.7373993e+02   2.7375838e+02   2.7383433e+02   2.7995327e+02   2.8400000e+02   2.9000000e+02   2.9000000e+02   2.8777496e+02   2.8755123e+02   2.9241043e+02   2.9234264e+02   3.0433719e+02   3.0438273e+02   3.1646297e+02   3.1654957e+02   3.2060092e+02   3.2061061e+02   3.2460491e+02   3.2458588e+02   3.2953700e+02   3.2945869e+02   3.3437397e+02   3.3429805e+02   3.3523754e+02   3.3519459e+02   3.3917006e+02   3.3916592e+02   3.4918659e+02   3.4923721e+02   3.6032036e+02   3.6043127e+02   3.7355187e+02   3.7365265e+02   3.8474498e+02   3.8484617e+02   3.9296207e+02   3.9700000e+02   4.0700000e+02   4.0700000e+02   4.2100000e+02   4.2100000e+02   4.3300000e+02   4.3300000e+02
1.8581273e+01   1.8844092e+01   1.7143391e+01   1.7468765e+01   2.2800713e+01   2.7000000e+01   3.9000000e+01   3.9000000e+01   4.6075834e+01   5.0000000e+01   6.1000000e+01   6.1000000e+01   7.3000000e+01   7.3000000e+01   8.0000000e+01   7.5865394e+01   7.6675535e+01   7.6539322e+01   7.8475619e+01   7.8497513e+01   8.3612195e+01   8.3817089e+01   9.5000000e+01   9.5000000e+01   9.8000000e+01   9.8000000e+01   9.4479183e+01   9.3970362e+01   9.3566283e+01   9.3271556e+01   9.3082941e+01   9.2996787e+01   9.3011196e+01   9.3126774e+01   9.3348085e+01   9.3688040e+01   9.8183549e+01   1.0300000e+02   1.1100000e+02   1.0634277e+02   1.1800562e+02   1.1782342e+02   1.3174926e+02   1.3175976e+02   1.4883861e+02   1.4897022e+02   1.6713620e+02   1.6731260e+02   1.8646988e+02   1.8658738e+02   2.0469844e+02   2.0482761e+02   2.2296913e+02   2.2700000e+02   2.3900000e+02   2.3900000e+02   2.3700000e+02   2.3700000e+02   2.2800000e+02   2.2800000e+02   2.2600000e+02   2.2600000e+02   2.2801833e+02   2.2803033e+02   2.3700000e+02   2.3700000e+02   2.4600000e+02   2.4600000e+02   2.6000000e+02   2.6000000e+02   2.6200000e+02   2.6200000e+02   2.5500000e+02   2.5500000e+02   2.4400000e+02   2.4400000e+02   2.3000000e+02   2.3000000e+02   2.1700000e+02   2.1700000e+02   2.0800000e+02   2.0800000e+02   2.0200000e+02   2.0200000e+02   2.0100000e+02   2.0100000e+02   2.0100000e+02   2.0100000e+02   2.0100000e+02   2.0100000e+02   2.0100000e+02   2.0100000e+02   2.0100000e+02   2.0100000e+02   2.0100000e+02   2.0100000e+02   2.0100000e+02   2.0100000e+02   2.0100000e+02   2.0100000e+02   2.0100000e+02   2.0100000e+02   2.0100000e+02   2.0100000e+02   2.0400000e+02   2.0400000e+02   2.1300000e+02   2.1300000e+02   2.1700000e+02   2.1700000e+02   2.1199851e+02   2.1193841e+02   2.1789287e+02   2.1787547e+02   2.2688990e+02   2.2694774e+02   2.3700000e+02   2.3700000e+02   2.3282604e+02   2.3270629e+02   2.2967119e+02   2.2971221e+02   2.3881993e+02   2.3896902e+02   2.5900000e+02   2.5900000e+02   2.5800000e+02   2.5396650e+02   2.4482776e+02   2.4471699e+02   2.3964467e+02   2.3960722e+02   2.4059791e+02   2.4061340e+02   2.5266246e+02   2.5275396e+02   2.7089157e+02   2.7500000e+02   2.8500000e+02   2.8500000e+02   2.8400000e+02   2.7990934e+02   2.7377284e+02   2.7369801e+02   2.7368511e+02   2.7373281e+02   2.7984629e+02   2.8400000e+02   2.9000000e+02   2.9000000e+02   2.8769661e+02   2.8747486e+02   2.9233797e+02   2.9226902e+02   3.0425684e+02   3.0429094e+02   3.1635871e+02   3.1644431e+02   3.2053192e+02   3.2061726e+02   3.2470098e+02   3.2476044e+02   3.2973522e+02   3.2962598e+02   3.3450461e+02   3.3439461e+02   3.3530368e+02   3.3523579e+02   3.3919462e+02   3.3918465e+02   3.4921156e+02   3.4928149e+02   3.6039921e+02   3.6056289e+02   3.7374482e+02   3.7384042e+02   3.8490315e+02   3.8496627e+02   3.9700000e+02   3.9700000e+02   4.0700000e+02   4.0700000e+02   4.2100000e+02   4.2100000e+02   4.3300000e+02   4.3300000e+02
1.5620411e+01   1.5870508e+01   1.6156107e+01   1.6468566e+01   2.4795252e+01   2.9000000e+01   4.2000000e+01   3.8076532e+01   4.9062091e+01   5.3000000e+01   6.4000000e+01   6.4000000e+01   7.6000000e+01   7.6000000e+01   8.1000000e+01   7.6896844e+01   7.6730360e+01   7.6611517e+01   8.0560397e+01   8.0587258e+01   8.7693938e+01   8.7872166e+01   9.8000000e+01   9.8000000e+01   1.0000000e+02   1.0000000e+02   9.5515693e+01   9.5039766e+01   9.4663086e+01   9.4389669e+01   9.4218648e+01   9.4149006e+01   9.4181115e+01   9.4317427e+01   9.4563236e+01   9.4927532e+01   9.9421455e+01   1.0400000e+02   1.1300000e+02   1.0852652e+02   1.2018938e+02   1.1998671e+02   1.3589299e+02   1.3589072e+02   1.5896635e+02   1.5910668e+02   1.8529448e+02   1.8550132e+02   1.9567289e+02   1.9572457e+02   2.0076824e+02   2.0084316e+02   2.1895240e+02   2.2300000e+02   2.3800000e+02   2.3800000e+02   2.4100000e+02   2.4100000e+02   2.3500000e+02   2.3500000e+02   2.3100000e+02   2.3100000e+02   2.3100000e+02   2.2704693e+02   2.3306075e+02   2.3700000e+02   2.4700000e+02   2.4700000e+02   2.5500000e+02   2.5500000e+02   2.5900000e+02   2.5900000e+02   2.5600000e+02   2.5600000e+02   2.4900000e+02   2.4900000e+02   2.3400000e+02   2.3400000e+02   2.1700000e+02   2.1700000e+02   2.0700000e+02   2.0700000e+02   2.0100000e+02   2.0100000e+02   2.0100000e+02   2.0100000e+02   2.0100000e+02   2.0100000e+02   2.0100000e+02   2.0100000e+02   2.0100000e+02   2.0100000e+02   2.0100000e+02   2.0100000e+02   2.0100000e+02   2.0100000e+02   2.0100000e+02   2.0100000e+02   2.0100000e+02   2.0100000e+02   2.0100000e+02   2.0100000e+02   2.0300000e+02   2.0300000e+02   2.1200000e+02   2.1200000e+02   2.2600000e+02   2.2600000e+02   2.2900000e+02   2.2900000e+02   2.2600000e+02   2.2197163e+02   2.2288871e+02   2.2282779e+02   2.3279944e+02   2.3280308e+02   2.4181957e+02   2.4178584e+02   2.4368727e+02   2.4361685e+02   2.3960370e+02   2.3965312e+02   2.4076158e+02   2.4091690e+02   2.5700000e+02   2.5700000e+02   2.6400000e+02   2.6400000e+02   2.5189382e+02   2.5175751e+02   2.4465998e+02   2.4459725e+02   2.4256648e+02   2.4256809e+02   2.4660710e+02   2.4668869e+02   2.5981330e+02   2.5996587e+02   2.7900000e+02   2.7900000e+02   2.8000000e+02   2.7591182e+02   2.7176026e+02   2.7166140e+02   2.7061676e+02   2.7062351e+02   2.7367505e+02   2.7374673e+02   2.7874882e+02   2.7868212e+02   2.8251223e+02   2.8235825e+02   2.8825171e+02   2.8819638e+02   2.9818890e+02   2.9822355e+02   3.1029365e+02   3.1039313e+02   3.1551941e+02   3.1567562e+02   3.2085915e+02   3.2500000e+02   3.3200000e+02   3.2783996e+02   3.3367216e+02   3.3352577e+02   3.3440324e+02   3.3430825e+02   3.3624664e+02   3.3622519e+02   3.4325125e+02   3.4333307e+02   3.5548068e+02   3.5570892e+02   3.7300000e+02   3.7300000e+02   3.8400000e+02   3.8400000e+02   3.9000000e+02   3.9000000e+02   3.9800000e+02   3.9800000e+02   4.0800000e+02   4.0800000e+02   4.2100000e+02   4.2100000e+02
1.5670115e+01   1.5911385e+01   1.6191314e+01   1.6500896e+01   2.4822023e+01   2.9000000e+01   4.2000000e+01   3.8057212e+01   4.9047360e+01   5.3000000e+01   6.4000000e+01   6.4000000e+01   7.6000000e+01   7.6000000e+01   8.1000000e+01   7.6948208e+01   7.6794430e+01   7.6680044e+01   8.0633486e+01   8.0661883e+01   8.7761634e+01   8.7918278e+01   9.8000000e+01   9.8000000e+01   1.0000000e+02   1.0000000e+02   9.5486453e+01   9.5042747e+01   9.4699383e+01   9.4452425e+01   9.4301774e+01   9.4248587e+01   9.4294984e+01   9.4444063e+01   9.4699559e+01   9.5063781e+01   9.9530140e+01   1.0400000e+02   1.0886540e+02   1.0855016e+02   1.2027582e+02   1.2008967e+02   1.3599848e+02   1.3599856e+02   1.5908369e+02   1.5924718e+02   1.8548027e+02   1.8576118e+02   2.0000000e+02   1.9591599e+02   2.0086725e+02   2.0088455e+02   2.1896268e+02   2.2300000e+02   2.3800000e+02   2.3800000e+02   2.4100000e+02   2.4100000e+02   2.3500000e+02   2.3500000e+02   2.3100000e+02   2.3100000e+02   2.3100000e+02   2.3100000e+02   2.3307261e+02   2.3700000e+02   2.4700000e+02   2.4700000e+02   2.5500000e+02   2.5500000e+02   2.5900000e+02   2.5900000e+02   2.5600000e+02   2.5600000e+02   2.4900000e+02   2.4900000e+02   2.3400000e+02   2.3400000e+02   2.1700000e+02   2.1700000e+02   2.0700000e+02   2.0700000e+02   2.0100000e+02   2.0100000e+02   2.0100000e+02   2.0100000e+02   2.0100000e+02   2.0100000e+02   2.0100000e+02   2.0100000e+02   2.0100000e+02   2.0100000e+02   2.0100000e+02   2.0100000e+02   2.0100000e+02   2.0100000e+02   2.0100000e+02   2.0100000e+02   2.0100000e+02   2.0100000e+02   2.0100000e+02   2.0100000e+02   2.0300000e+02   2.0300000e+02   2.1200000e+02   2.1200000e+02   2.2600000e+02   2.2600000e+02   2.2900000e+02   2.2900000e+02   2.2600000e+02   2.2600000e+02   2.2291739e+02   2.2281319e+02   2.3273979e+02   2.3269302e+02   2.4165899e+02   2.4161557e+02   2.4356147e+02   2.4352806e+02   2.3953688e+02   2.3959760e+02   2.4071282e+02   2.4088011e+02   2.5700000e+02   2.5700000e+02   2.6400000e+02   2.6400000e+02   2.5195762e+02   2.5181876e+02   2.4470493e+02   2.4462172e+02   2.4256957e+02   2.4255200e+02   2.4657440e+02   2.4664153e+02   2.5975536e+02   2.5991254e+02   2.7900000e+02   2.7900000e+02   2.8000000e+02   2.7591674e+02   2.7175554e+02   2.7163674e+02   2.7056223e+02   2.7052799e+02   2.7352351e+02   2.7352687e+02   2.7850299e+02   2.7844048e+02   2.8233947e+02   2.8224028e+02   2.8816812e+02   2.8813314e+02   2.9813743e+02   2.9817960e+02   3.1025775e+02   3.1037221e+02   3.1552912e+02   3.1574436e+02   3.2500000e+02   3.2500000e+02   3.3200000e+02   3.3200000e+02   3.3385481e+02   3.3368197e+02   3.3452921e+02   3.3440403e+02   3.3631664e+02   3.3627674e+02   3.4329277e+02   3.4337308e+02   3.5552704e+02   3.5576373e+02   3.7300000e+02   3.7300000e+02   3.8400000e+02   3.8400000e+02   3.9000000e+02   3.9000000e+02   3.9800000e+02   3.9800000e+02   4.0800000e+02   4.0403442e+02   4.2100000e+02   4.2100000e+02
1.1728816e+01   1.1963573e+01   1.5245357e+01   1.5567058e+01   2.6896976e+01   3.1000000e+01   4.4000000e+01   4.0031858e+01   5.2029094e+01   5.6000000e+01   6.8000000e+01   6.8000000e+01   7.8000000e+01   7.8000000e+01   8.3000000e+01   8.3000000e+01   7.9867763e+01   7.9744013e+01   8.4699091e+01   8.4731454e+01   9.0832433e+01   9.0977122e+01   9.9000000e+01   9.9000000e+01   1.0000000e+02   9.5751783e+01   9.5350758e+01   9.4983222e+01   9.4684732e+01   9.4467508e+01   9.4337435e+01   9.4298738e+01   9.4355262e+01   9.4510813e+01   9.4768368e+01   9.5127252e+01   9.9575187e+01   1.0400000e+02   1.0982792e+02   1.0955636e+02   1.2131738e+02   1.2114922e+02   1.3906785e+02   1.3907721e+02   1.6917683e+02   1.6936655e+02   1.9765154e+02   2.0200000e+02   2.1000000e+02   2.1000000e+02   2.0695532e+02   2.0692826e+02   2.1697932e+02   2.2100000e+02   2.3700000e+02   2.3700000e+02   2.4500000e+02   2.4500000e+02   2.4400000e+02   2.4400000e+02   2.3900000e+02   2.3900000e+02   2.3500000e+02   2.3500000e+02   2.3400000e+02   2.3007930e+02   2.4100000e+02   2.4100000e+02   2.5000000e+02   2.5000000e+02   2.5300000e+02   2.5300000e+02   2.5300000e+02   2.5300000e+02   2.4800000e+02   2.4800000e+02   2.4100000e+02   2.4100000e+02   2.2700000e+02   2.2700000e+02   2.0900000e+02   2.0900000e+02   2.0100000e+02   2.0100000e+02   2.0100000e+02   2.0100000e+02   2.0100000e+02   2.0100000e+02   2.0100000e+02   2.0100000e+02   2.0100000e+02   2.0100000e+02   2.0100000e+02   2.0100000e+02   2.0100000e+02   2.0100000e+02   2.0100000e+02   2.0100000e+02   2.0100000e+02   2.0100000e+02   2.0100000e+02   2.0100000e+02   2.0600000e+02   2.0600000e+02   2.2100000e+02   2.2100000e+02   2.3700000e+02   2.3700000e+02   2.4100000e+02   2.4100000e+02   2.3700000e+02   2.3700000e+02   2.3095462e+02   2.3082845e+02   2.3771639e+02   2.3762962e+02   2.4856353e+02   2.4851048e+02   2.5147110e+02   2.5145739e+02   2.4948108e+02   2.4954975e+02   2.4366769e+02   2.4383857e+02   2.5400000e+02   2.5400000e+02   2.6800000e+02   2.6800000e+02   2.6500000e+02   2.6090311e+02   2.5278022e+02   2.5267971e+02   2.4960388e+02   2.4956218e+02   2.5156261e+02   2.5161079e+02   2.5571076e+02   2.5586660e+02   2.6800000e+02   2.6800000e+02   2.7600000e+02   2.7193385e+02   2.7476844e+02   2.7463284e+02   2.7453201e+02   2.7446319e+02   2.7441769e+02   2.7438132e+02   2.7533770e+02   2.7527955e+02   2.8020996e+02   2.8014577e+02   2.8610210e+02   2.8608787e+02   2.9210655e+02   2.9215866e+02   3.0024423e+02   3.0036564e+02   3.0953034e+02   3.0975267e+02   3.2100000e+02   3.2100000e+02   3.3100000e+02   3.3100000e+02   3.3700000e+02   3.3285532e+02   3.3367675e+02   3.3351609e+02   3.3439603e+02   3.3433047e+02   3.3832761e+02   3.3839361e+02   3.4853477e+02   3.4875785e+02   3.6500000e+02   3.6500000e+02   3.7800000e+02   3.7800000e+02   3.8700000e+02   3.8700000e+02   3.9300000e+02   3.9300000e+02   3.9704595e+02   3.9700389e+02   4.0798813e+02   4.0799600e+02
1.1791442e+01   1.2017847e+01   1.5304549e+01   1.5658990e+01   3.1000000e+01   3.1000000e+01   4.0040048e+01   3.9979417e+01   5.1997758e+01   5.6000000e+01   6.8000000e+01   6.8000000e+01   7.8000000e+01   7.8000000e+01   8.3000000e+01   8.3000000e+01   7.9906894e+01   7.9792164e+01   8.4755786e+01   8.4798838e+01   9.0913722e+01   9.5000000e+01   9.9000000e+01   9.9000000e+01   9.5865371e+01   9.5551371e+01   9.5211644e+01   9.4897252e+01   9.4636720e+01   9.4445482e+01   9.4332625e+01   9.4304466e+01   9.4366265e+01   9.4522892e+01   9.4778385e+01   9.5133802e+01   9.9580005e+01   1.0400000e+02   1.0983833e+02   1.0957093e+02   1.2133772e+02   1.2117641e+02   1.3910312e+02   1.3912245e+02   1.6923442e+02   1.6943761e+02   1.9772857e+02   2.0200000e+02   2.1000000e+02   2.1000000e+02   2.0699771e+02   2.0695971e+02   2.1699400e+02   2.2100000e+02   2.3700000e+02   2.3700000e+02   2.4500000e+02   2.4500000e+02   2.4400000e+02   2.4400000e+02   2.3900000e+02   2.3900000e+02   2.3500000e+02   2.3500000e+02   2.3400000e+02   2.3008088e+02   2.4100000e+02   2.4100000e+02   2.5000000e+02   2.5000000e+02   2.5300000e+02   2.5300000e+02   2.5300000e+02   2.5300000e+02   2.4800000e+02   2.4800000e+02   2.4100000e+02   2.4100000e+02   2.2700000e+02   2.2700000e+02   2.0900000e+02   2.0900000e+02   2.0100000e+02   2.0100000e+02   2.0100000e+02   2.0100000e+02   2.0100000e+02   2.0100000e+02   2.0100000e+02   2.0100000e+02   2.0100000e+02   2.0100000e+02   2.0100000e+02   2.0100000e+02   2.0100000e+02   2.0100000e+02   2.0100000e+02   2.0100000e+02   2.0100000e+02   2.0100000e+02   2.0100000e+02   2.0100000e+02   2.0600000e+02   2.0600000e+02   2.2100000e+02   2.2100000e+02   2.3700000e+02   2.3700000e+02   2.4100000e+02   2.4100000e+02   2.3700000e+02   2.3700000e+02   2.3500000e+02   2.3087562e+02   2.3772714e+02   2.3760739e+02   2.4851660e+02   2.4845286e+02   2.5141649e+02   2.5141175e+02   2.4944345e+02   2.4951462e+02   2.4362597e+02   2.4377478e+02   2.4994442e+02   2.5400000e+02   2.6800000e+02   2.6800000e+02   2.6500000e+02   2.6098021e+02   2.5288941e+02   2.5277294e+02   2.4966701e+02   2.4959521e+02   2.5156864e+02   2.5159252e+02   2.5566921e+02   2.5579756e+02   2.6396232e+02   2.6800000e+02   2.7600000e+02   2.7197905e+02   2.7481021e+02   2.7465752e+02   2.7453368e+02   2.7443707e+02   2.7436153e+02   2.7429858e+02   2.7523999e+02   2.7518217e+02   2.8012767e+02   2.8008490e+02   2.8606269e+02   2.8606707e+02   2.9210058e+02   2.9216305e+02   3.0025349e+02   3.0037248e+02   3.0952379e+02   3.0971064e+02   3.1691768e+02   3.2100000e+02   3.3100000e+02   3.3100000e+02   3.3700000e+02   3.3700000e+02   3.3384350e+02   3.3363639e+02   3.3447531e+02   3.3437894e+02   3.3835142e+02   3.3839408e+02   3.4850738e+02   3.4868758e+02   3.6091160e+02   3.6500000e+02   3.7800000e+02   3.7407347e+02   3.8700000e+02   3.8700000e+02   3.9300000e+02   3.9300000e+02   4.0100000e+02   3.9698941e+02   4.0793239e+02   4.0791248e+02
9.8508492e+00   1.0059892e+01   1.6337420e+01   1.6689149e+01   3.3000000e+01   3.3000000e+01   4.0977777e+01   4.0911870e+01   5.1943638e+01   5.6000000e+01   6.7000000e+01   6.7000000e+01   7.7000000e+01   7.7000000e+01   8.3000000e+01   8.3000000e+01   8.1926937e+01   8.1824634e+01   8.6801734e+01   8.6860316e+01   9.2979938e+01   9.7000000e+01   9.9000000e+01   9.9000000e+01   9.5752430e+01   9.5412453e+01   9.5091121e+01   9.4804885e+01   9.4569282e+01   9.4396280e+01   9.4294700e+01   9.4271474e+01   9.4332579e+01   9.4483898e+01   9.4731677e+01   9.5082552e+01   1.0054039e+02   1.0500000e+02   1.0989670e+02   1.0959460e+02   1.2333760e+02   1.2317126e+02   1.4310342e+02   1.4313266e+02   1.7425559e+02   1.7446742e+02   2.0475834e+02   2.0900000e+02   2.1800000e+02   2.1800000e+02   2.1402236e+02   2.1398628e+02   2.2300741e+02   2.2700000e+02   2.4200000e+02   2.4200000e+02   2.5000000e+02   2.5000000e+02   2.4900000e+02   2.4900000e+02   2.4200000e+02   2.4200000e+02   2.3500000e+02   2.3500000e+02   2.3000000e+02   2.3000000e+02   2.2906573e+02   2.3300000e+02   2.4300000e+02   2.4300000e+02   2.4800000e+02   2.4800000e+02   2.5000000e+02   2.5000000e+02   2.4900000e+02   2.4900000e+02   2.4300000e+02   2.4300000e+02   2.2900000e+02   2.2900000e+02   2.0900000e+02   2.0900000e+02   2.0100000e+02   2.0100000e+02   2.0100000e+02   2.0100000e+02   2.0100000e+02   2.0100000e+02   2.0100000e+02   2.0100000e+02   2.0100000e+02   2.0100000e+02   2.0100000e+02   2.0100000e+02   2.0100000e+02   2.0100000e+02   2.0100000e+02   2.0100000e+02   2.0100000e+02   2.0100000e+02   2.0200000e+02   2.0200000e+02   2.0900000e+02   2.0900000e+02   2.2500000e+02   2.2500000e+02   2.3900000e+02   2.3900000e+02   2.4600000e+02   2.4600000e+02   2.4500000e+02   2.4500000e+02   2.4100000e+02   2.3692903e+02   2.3976345e+02   2.3961616e+02   2.5250476e+02   2.5243065e+02   2.5839327e+02   2.5839296e+02   2.5742968e+02   2.5750162e+02   2.5560500e+02   2.5573536e+02   2.5589039e+02   2.6000000e+02   2.6700000e+02   2.6700000e+02   2.7200000e+02   2.7200000e+02   2.6800000e+02   2.6390157e+02   2.5575354e+02   2.5564561e+02   2.5558928e+02   2.5558628e+02   2.5763674e+02   2.5773960e+02   2.5789204e+02   2.6200000e+02   2.6900000e+02   2.6900000e+02   2.7088542e+02   2.7071388e+02   2.7857091e+02   2.7845207e+02   2.8035337e+02   2.8027022e+02   2.7719871e+02   2.7713772e+02   2.7808968e+02   2.7805981e+02   2.8205357e+02   2.8207463e+02   2.8812360e+02   2.8819784e+02   2.9429263e+02   2.9440436e+02   2.9953443e+02   2.9968689e+02   3.0886412e+02   3.1300000e+02   3.2800000e+02   3.2800000e+02   3.3600000e+02   3.3600000e+02   3.3900000e+02   3.3474594e+02   3.3454057e+02   3.3441530e+02   3.3836332e+02   3.3838049e+02   3.4746373e+02   3.4760919e+02   3.5981258e+02   3.6400000e+02   3.7600000e+02   3.7203701e+02   3.8104069e+02   3.8500000e+02   3.9100000e+02   3.9100000e+02   3.9600000e+02   3.9198558e+02   3.9890495e+02   3.9885452e+02
9.9012683e+00   1.0080685e+01   1.6333682e+01   1.6669062e+01   3.3000000e+01   3.3000000e+01   4.0886873e+01   4.0811958e+01   5.1839687e+01   5.1945368e+01   6.7000000e+01   6.7000000e+01   7.7000000e+01   7.7000000e+01   8.3000000e+01   8.3000000e+01   8.1933545e+01   8.1841174e+01   8.6834110e+01   8.6918055e+01   9.7000000e+01   9.7000000e+01   9.9000000e+01   9.9000000e+01   9.5657888e+01   9.5299384e+01   9.4984288e+01   9.4712306e+01   9.4490605e+01   9.4327438e+01   9.4230240e+01   9.4205405e+01   9.4258798e+01   9.4396237e+01   9.4625097e+01   9.4957216e+01   1.0041791e+02   1.0500000e+02   1.1400000e+02   1.0960441e+02   1.2329535e+02   1.2312294e+02   1.4306443e+02   1.4310711e+02   1.7424327e+02   1.7446571e+02   2.0476228e+02   2.0900000e+02   2.1800000e+02   2.1800000e+02   2.1404673e+02   2.1402170e+02   2.2302396e+02   2.2700000e+02   2.4200000e+02   2.4200000e+02   2.5000000e+02   2.5000000e+02   2.4900000e+02   2.4900000e+02   2.4200000e+02   2.4200000e+02   2.3500000e+02   2.3500000e+02   2.3000000e+02   2.3000000e+02   2.2903721e+02   2.2902033e+02   2.4300000e+02   2.4300000e+02   2.4800000e+02   2.4800000e+02   2.5000000e+02   2.5000000e+02   2.4900000e+02   2.4900000e+02   2.4300000e+02   2.4300000e+02   2.2900000e+02   2.2900000e+02   2.0900000e+02   2.0900000e+02   2.0100000e+02   2.0100000e+02   2.0100000e+02   2.0100000e+02   2.0100000e+02   2.0100000e+02   2.0100000e+02   2.0100000e+02   2.0100000e+02   2.0100000e+02   2.0100000e+02   2.0100000e+02   2.0100000e+02   2.0100000e+02   2.0100000e+02   2.0100000e+02   2.0100000e+02   2.0100000e+02   2.0200000e+02   1.9802136e+02   2.0900000e+02   2.0900000e+02   2.2500000e+02   2.2500000e+02   2.3900000e+02   2.3900000e+02   2.4600000e+02   2.4600000e+02   2.4500000e+02   2.4500000e+02   2.4100000e+02   2.4100000e+02   2.3982153e+02   2.3964474e+02   2.5251666e+02   2.5243448e+02   2.5839632e+02   2.5840049e+02   2.5744384e+02   2.5751991e+02   2.5561844e+02   2.5572896e+02   2.5585063e+02   2.5597911e+02   2.6700000e+02   2.6700000e+02   2.7200000e+02   2.7200000e+02   2.6800000e+02   2.6800000e+02   2.5584468e+02   2.5570361e+02   2.5562100e+02   2.5559208e+02   2.5761547e+02   2.5769022e+02   2.5781292e+02   2.5796817e+02   2.6900000e+02   2.6900000e+02   2.7096223e+02   2.7079903e+02   2.7864474e+02   2.7850812e+02   2.8039029e+02   2.8028988e+02   2.7720559e+02   2.7713827e+02   2.7809107e+02   2.7806840e+02   2.8207441e+02   2.8211147e+02   2.8817848e+02   2.8826935e+02   2.9437261e+02   2.9447595e+02   2.9957989e+02   2.9969207e+02   3.0882167e+02   3.0896326e+02   3.2800000e+02   3.2800000e+02   3.3600000e+02   3.3600000e+02   3.3900000e+02   3.3478682e+02   3.3457392e+02   3.3443480e+02   3.3836492e+02   3.3835906e+02   3.4741269e+02   3.4752092e+02   3.5967702e+02   3.5986637e+02   3.7600000e+02   3.7196883e+02   3.8099306e+02   3.8500000e+02   3.9100000e+02   3.9100000e+02   3.9600000e+02   3.9200354e+02   3.9891419e+02   3.9883867e+02
1.1938922e+01   1.2075329e+01   2.1284102e+01   2.1581216e+01   3.7000000e+01   3.2834169e+01   4.1713869e+01   4.1669825e+01   4.8709579e+01   4.8834162e+01   6.2000000e+01   6.2000000e+01   7.4000000e+01   7.4000000e+01   8.2000000e+01   8.2000000e+01   8.1922690e+01   8.1836768e+01   8.6843109e+01   8.6939244e+01   9.6000000e+01   9.6000000e+01   9.8000000e+01   9.3863835e+01   9.4525314e+01   9.4189694e+01   9.3885061e+01   9.3621212e+01   9.4405463e+01   9.4244770e+01   9.4145252e+01   9.4112320e+01   9.4150688e+01   9.4264616e+01   9.5458408e+01   9.5736923e+01   1.0210509e+02   1.0255870e+02   1.1600000e+02   1.1146457e+02   1.2516155e+02   1.2501471e+02   1.4498146e+02   1.4504581e+02   1.7520026e+02   1.7543848e+02   2.0874892e+02   2.1300000e+02   2.2600000e+02   2.2600000e+02   2.2600000e+02   2.2600000e+02   2.3400000e+02   2.3400000e+02   2.4800000e+02   2.4800000e+02   2.5200000e+02   2.5200000e+02   2.4500000e+02   2.4500000e+02   2.3900000e+02   2.3900000e+02   2.3300000e+02   2.3300000e+02   2.2700000e+02   2.2700000e+02   2.2200740e+02   2.2197197e+02   2.2898780e+02   2.3300000e+02   2.4300000e+02   2.4300000e+02   2.4800000e+02   2.4800000e+02   2.4900000e+02   2.4900000e+02   2.4000000e+02   2.4000000e+02   2.2400000e+02   2.2400000e+02   2.0800000e+02   2.0800000e+02   2.0200000e+02   2.0200000e+02   2.0100000e+02   2.0100000e+02   2.0100000e+02   2.0100000e+02   2.0100000e+02   2.0100000e+02   2.0100000e+02   2.0100000e+02   2.0300000e+02   2.0300000e+02   2.0900000e+02   2.0900000e+02   2.1000000e+02   2.1000000e+02   2.0200000e+02   2.0200000e+02   2.0200000e+02   1.9800936e+02   2.0699938e+02   2.1100000e+02   2.2600000e+02   2.2600000e+02   2.3900000e+02   2.3900000e+02   2.4900000e+02   2.4900000e+02   2.5200000e+02   2.5200000e+02   2.5000000e+02   2.5000000e+02   2.4585623e+02   2.4567710e+02   2.5454256e+02   2.5445667e+02   2.6442008e+02   2.6443167e+02   2.6848742e+02   2.6857757e+02   2.6268196e+02   2.6277258e+02   2.5285562e+02   2.5295305e+02   2.6000000e+02   2.6000000e+02   2.7200000e+02   2.7200000e+02   2.7400000e+02   2.7400000e+02   2.6289986e+02   2.6275998e+02   2.5966276e+02   2.5961138e+02   2.6060812e+02   2.6065425e+02   2.6174952e+02   2.6189264e+02   2.7200000e+02   2.7200000e+02   2.8100000e+02   2.7692224e+02   2.8475717e+02   2.8460418e+02   2.8646921e+02   2.8635270e+02   2.8225434e+02   2.8217715e+02   2.8212603e+02   2.8210605e+02   2.8312145e+02   2.8317469e+02   2.8626470e+02   2.8638300e+02   2.9350755e+02   2.9360355e+02   2.9767594e+02   2.9773868e+02   2.9981641e+02   2.9992467e+02   3.1300000e+02   3.1300000e+02   3.2600000e+02   3.2600000e+02   3.3100000e+02   3.2678390e+02   3.3058094e+02   3.3044185e+02   3.3736205e+02   3.3733765e+02   3.4636442e+02   3.4643656e+02   3.5754468e+02   3.5767186e+02   3.6878455e+02   3.6883056e+02   3.7891441e+02   3.8300000e+02   3.8900000e+02   3.8900000e+02   3.9500000e+02   3.9500000e+02   3.9496764e+02   3.9486535e+02
1.1963055e+01   1.2046123e+01   2.1185325e+01   2.1367724e+01   3.2543384e+01   3.2539203e+01   4.1504433e+01   4.1500225e+01   4.8550338e+01   4.8662971e+01   5.7833826e+01   6.2000000e+01   7.4000000e+01   7.4000000e+01   8.2000000e+01   8.2000000e+01   8.1878704e+01   8.1804647e+01   8.6828886e+01   8.6939022e+01   9.6000000e+01   9.6000000e+01   9.8000000e+01   9.3772855e+01   9.4427673e+01   9.4097368e+01   9.3796536e+01   9.3534323e+01   9.4317706e+01   9.4152857e+01   9.4045062e+01   9.3998538e+01   9.4016389e+01   9.4100376e+01   9.5250279e+01   9.5462208e+01   1.0172318e+02   1.0199700e+02   1.1118556e+02   1.1105099e+02   1.2491399e+02   1.2484514e+02   1.4485690e+02   1.4495125e+02   1.7512852e+02   1.7538733e+02   2.0872015e+02   2.1300000e+02   2.2600000e+02   2.2600000e+02   2.2600000e+02   2.2600000e+02   2.3400000e+02   2.3400000e+02   2.4800000e+02   2.4800000e+02   2.5200000e+02   2.5200000e+02   2.4500000e+02   2.4500000e+02   2.3900000e+02   2.3900000e+02   2.3300000e+02   2.3300000e+02   2.2700000e+02   2.2700000e+02   2.2197736e+02   2.2192572e+02   2.2893395e+02   2.2898453e+02   2.4300000e+02   2.4300000e+02   2.4800000e+02   2.4800000e+02   2.4900000e+02   2.4900000e+02   2.4000000e+02   2.4000000e+02   2.2400000e+02   2.2400000e+02   2.0800000e+02   2.0800000e+02   2.0200000e+02   2.0200000e+02   2.0100000e+02   2.0100000e+02   2.0100000e+02   2.0100000e+02   2.0100000e+02   2.0100000e+02   2.0100000e+02   2.0100000e+02   2.0300000e+02   2.0300000e+02   2.0900000e+02   2.0900000e+02   2.1000000e+02   2.1000000e+02   2.0200000e+02   2.0200000e+02   2.0200000e+02   1.9797335e+02   2.0694277e+02   2.0696787e+02   2.2600000e+02   2.2600000e+02   2.3900000e+02   2.3900000e+02   2.4900000e+02   2.4900000e+02   2.5200000e+02   2.5200000e+02   2.5000000e+02   2.5000000e+02   2.4588686e+02   2.4571512e+02   2.5457879e+02   2.5449150e+02   2.6445842e+02   2.6448054e+02   2.6855607e+02   2.6867766e+02   2.6281655e+02   2.6288367e+02   2.5290782e+02   2.5294749e+02   2.5601512e+02   2.6000000e+02   2.7200000e+02   2.7200000e+02   2.7400000e+02   2.7400000e+02   2.6295300e+02   2.6282765e+02   2.5972076e+02   2.5964788e+02   2.6061734e+02   2.6063346e+02   2.6169737e+02   2.6180644e+02   2.6794773e+02   2.7200000e+02   2.8100000e+02   2.8100000e+02   2.8490266e+02   2.8473638e+02   2.8658653e+02   2.8645519e+02   2.8233996e+02   2.8224808e+02   2.8218799e+02   2.8216626e+02   2.8318771e+02   2.8325626e+02   2.8637428e+02   2.8653801e+02   2.9371769e+02   2.9380316e+02   2.9783627e+02   2.9783062e+02   2.9984272e+02   2.9989273e+02   3.0897764e+02   3.1300000e+02   3.2600000e+02   3.2600000e+02   3.2692224e+02   3.2674009e+02   3.3057502e+02   3.3044761e+02   3.3736408e+02   3.3732552e+02   3.4632988e+02   3.4637206e+02   3.5744348e+02   3.5753136e+02   3.6861970e+02   3.6870004e+02   3.7880209e+02   3.7893453e+02   3.8900000e+02   3.8900000e+02   3.9500000e+02   3.9500000e+02   3.9900000e+02   3.9492107e+02
1.5978556e+01   1.6010208e+01   2.6086595e+01   2.6186885e+01   3.4275388e+01   3.4305178e+01   3.9312269e+01   3.9331231e+01   4.5382360e+01   4.5473387e+01   5.2600218e+01   5.2741442e+01   6.2853441e+01   6.7000000e+01   7.7000000e+01   7.2873119e+01   7.9767370e+01   7.9738878e+01   8.6794221e+01   8.6926348e+01   9.6000000e+01   9.6000000e+01   9.7000000e+01   9.2723786e+01   9.2361812e+01   9.2026199e+01   9.2721612e+01   9.2454099e+01   9.3230175e+01   9.3055516e+01   9.3934618e+01   9.3870572e+01   9.3864918e+01   9.3917204e+01   9.7024034e+01   9.7177027e+01   1.0335882e+02   1.0353645e+02   1.1165571e+02   1.1166164e+02   1.2364018e+02   1.2364558e+02   1.4270408e+02   1.4282916e+02   1.7202903e+02   1.7230912e+02   2.0667050e+02   2.1100000e+02   2.3200000e+02   2.3200000e+02   2.3400000e+02   2.3400000e+02   2.3600000e+02   2.3600000e+02   2.4400000e+02   2.4400000e+02   2.4600000e+02   2.4600000e+02   2.3800000e+02   2.3800000e+02   2.3100000e+02   2.3100000e+02   2.2600000e+02   2.2600000e+02   2.2000000e+02   2.2000000e+02   2.1294016e+02   2.1288209e+02   2.1988936e+02   2.1995520e+02   2.4100000e+02   2.4100000e+02   2.5400000e+02   2.5400000e+02   2.5100000e+02   2.5100000e+02   2.3800000e+02   2.3800000e+02   2.2400000e+02   2.2400000e+02   2.1300000e+02   2.1300000e+02   2.0500000e+02   2.0500000e+02   2.0100000e+02   2.0100000e+02   2.0100000e+02   2.0100000e+02   2.0100000e+02   2.0100000e+02   2.0100000e+02   2.0100000e+02   2.0300000e+02   2.0300000e+02   2.0900000e+02   2.0900000e+02   2.1000000e+02   2.1000000e+02   2.0400000e+02   2.0400000e+02   1.9898836e+02   1.9891538e+02   2.0687985e+02   2.0689431e+02   2.1994967e+02   2.2400000e+02   2.3700000e+02   2.3700000e+02   2.4800000e+02   2.4800000e+02   2.5500000e+02   2.5500000e+02   2.5600000e+02   2.5600000e+02   2.4893614e+02   2.4876689e+02   2.5262383e+02   2.5253382e+02   2.6350421e+02   2.6353715e+02   2.7263435e+02   2.7280131e+02   2.7400000e+02   2.7400000e+02   2.5899974e+02   2.5897262e+02   2.5600105e+02   2.6000000e+02   2.7000000e+02   2.7000000e+02   2.8000000e+02   2.8000000e+02   2.7900000e+02   2.7492131e+02   2.6980264e+02   2.6970529e+02   2.6564552e+02   2.6563065e+02   2.6466246e+02   2.6473827e+02   2.7084975e+02   2.7097837e+02   2.8600000e+02   2.8600000e+02   2.9500000e+02   2.9089535e+02   2.9273738e+02   2.9259634e+02   2.8945820e+02   2.8934416e+02   2.8826952e+02   2.8824139e+02   2.8926402e+02   2.8934257e+02   2.9248537e+02   2.9270732e+02   3.0400000e+02   3.0400000e+02   3.0700000e+02   3.0295678e+02   2.9889563e+02   2.9888487e+02   2.9991811e+02   2.9996920e+02   3.0798948e+02   3.0796085e+02   3.1885857e+02   3.1872328e+02   3.2758671e+02   3.2746892e+02   3.3338204e+02   3.3333164e+02   3.4231804e+02   3.4233745e+02   3.5138301e+02   3.5144630e+02   3.6152029e+02   3.6160431e+02   3.7470802e+02   3.7483438e+02   3.8496844e+02   3.8900000e+02   3.9300000e+02   3.9300000e+02   3.9400000e+02   3.8997361e+02
1.5990323e+01   1.5981994e+01   2.6012667e+01   2.6063620e+01   3.4112368e+01   3.4141630e+01   3.9160436e+01   3.9185087e+01   4.5228527e+01   4.5296608e+01   5.2386778e+01   5.2487825e+01   6.2585858e+01   6.2680518e+01   7.2700858e+01   7.2655717e+01   7.9627320e+01   7.9652723e+01   8.6746025e+01   8.6906637e+01   9.6000000e+01   9.6000000e+01   9.7000000e+01   9.2685174e+01   9.2317538e+01   9.1975915e+01   9.2661770e+01   9.2382332e+01   9.3144982e+01   9.2955504e+01   9.3817763e+01   9.3733835e+01   9.3703987e+01   9.3726353e+01   9.6796197e+01   9.6904500e+01   1.0303615e+02   1.0316853e+02   1.1127440e+02   1.1133737e+02   1.2338336e+02   1.2344199e+02   1.4253689e+02   1.4268576e+02   1.7190163e+02   1.7219515e+02   2.0657945e+02   2.1100000e+02   2.3200000e+02   2.3200000e+02   2.3400000e+02   2.3400000e+02   2.3600000e+02   2.3600000e+02   2.4400000e+02   2.4400000e+02   2.4600000e+02   2.4600000e+02   2.3800000e+02   2.3800000e+02   2.3100000e+02   2.3100000e+02   2.2600000e+02   2.2600000e+02   2.2000000e+02   2.1596709e+02   2.1288492e+02   2.1283946e+02   2.1984832e+02   2.1991910e+02   2.4100000e+02   2.4100000e+02   2.5400000e+02   2.5400000e+02   2.5100000e+02   2.5100000e+02   2.3800000e+02   2.3800000e+02   2.2400000e+02   2.2400000e+02   2.1300000e+02   2.1300000e+02   2.0500000e+02   2.0500000e+02   2.0100000e+02   2.0100000e+02   2.0100000e+02   2.0100000e+02   2.0100000e+02   2.0100000e+02   2.0100000e+02   2.0100000e+02   2.0300000e+02   2.0300000e+02   2.0900000e+02   2.0900000e+02   2.1000000e+02   2.1000000e+02   2.0400000e+02   2.0400000e+02   1.9895442e+02   1.9887041e+02   2.0682892e+02   2.0683241e+02   2.1987563e+02   2.1994779e+02   2.3700000e+02   2.3700000e+02   2.4800000e+02   2.4800000e+02   2.5500000e+02   2.5500000e+02   2.5600000e+02   2.5600000e+02   2.5300000e+02   2.4883266e+02   2.5267172e+02   2.5257740e+02   2.6355046e+02   2.6359059e+02   2.7269694e+02   2.7286742e+02   2.7400000e+02   2.7400000e+02   2.6300000e+02   2.5900525e+02   2.5599042e+02   2.5602982e+02   2.7000000e+02   2.7000000e+02   2.8000000e+02   2.8000000e+02   2.7900000e+02   2.7900000e+02   2.6990897e+02   2.6978340e+02   2.6569255e+02   2.6564731e+02   2.6464901e+02   2.6469631e+02   2.7078584e+02   2.7091407e+02   2.8600000e+02   2.8600000e+02   2.9500000e+02   2.9500000e+02   2.9291117e+02   2.9278301e+02   2.8960301e+02   2.8945544e+02   2.8836210e+02   2.8832443e+02   2.8934226e+02   2.8941912e+02   2.9256281e+02   2.9278269e+02   3.0400000e+02   3.0400000e+02   3.0700000e+02   3.0700000e+02   2.9895747e+02   2.9890228e+02   2.9990269e+02   2.9994151e+02   3.0798358e+02   3.0796611e+02   3.1887804e+02   3.1876466e+02   3.2763845e+02   3.2751953e+02   3.3342465e+02   3.3336248e+02   3.4233468e+02   3.4233787e+02   3.5136572e+02   3.5141175e+02   3.6147266e+02   3.6155022e+02   3.7465020e+02   3.7477602e+02   3.8492458e+02   3.8900000e+02   3.9300000e+02   3.9300000e+02   3.9400000e+02   3.9400000e+02
1.8003085e+01   1.7969369e+01   2.3972034e+01   2.3994899e+01   3.1021944e+01   3.1042362e+01   3.8057668e+01   3.8075777e+01   4.4104922e+01   4.4149830e+01   4.9209912e+01   4.9279496e+01   5.5350098e+01   5.5412299e+01   6.5446595e+01   6.5460880e+01   7.4489744e+01   7.4560998e+01   8.2690498e+01   8.2881625e+01   9.3000000e+01   9.3000000e+01   9.1941831e+01   9.1638192e+01   9.2296801e+01   9.1949980e+01   9.1619001e+01   9.1319765e+01   9.2062750e+01   9.1854075e+01   9.2696832e+01   9.2592002e+01   9.4538830e+01   9.4534728e+01   9.9574884e+01   9.9651549e+01   1.0575354e+02   1.0586647e+02   1.1297527e+02   1.1307061e+02   1.2315719e+02   1.2324860e+02   1.3936498e+02   1.3952636e+02   1.6674730e+02   1.6703598e+02   2.0139163e+02   2.0178439e+02   2.3100000e+02   2.3100000e+02   2.3800000e+02   2.3800000e+02   2.3700000e+02   2.3700000e+02   2.4100000e+02   2.4100000e+02   2.4400000e+02   2.4400000e+02   2.3800000e+02   2.3800000e+02   2.2800000e+02   2.2800000e+02   2.2000000e+02   2.2000000e+02   2.1198568e+02   2.1191392e+02   2.0785022e+02   2.0781112e+02   2.0981078e+02   2.0985739e+02   2.2394514e+02   2.2800000e+02   2.4400000e+02   2.4400000e+02   2.5000000e+02   2.5000000e+02   2.4500000e+02   2.4500000e+02   2.3200000e+02   2.3200000e+02   2.1600000e+02   2.1600000e+02   2.0600000e+02   2.0600000e+02   2.0100000e+02   2.0100000e+02   2.0100000e+02   2.0100000e+02   2.0100000e+02   2.0100000e+02   2.0100000e+02   2.0100000e+02   2.0200000e+02   2.0200000e+02   2.0500000e+02   2.0500000e+02   2.0500000e+02   2.0500000e+02   2.0100000e+02   2.0100000e+02   1.9993111e+02   1.9984461e+02   2.0980108e+02   2.0979650e+02   2.1982536e+02   2.1988147e+02   2.2795747e+02   2.3200000e+02   2.4200000e+02   2.4200000e+02   2.4900000e+02   2.4900000e+02   2.5300000e+02   2.5300000e+02   2.5700000e+02   2.5286650e+02   2.5670786e+02   2.5661563e+02   2.6259328e+02   2.6263939e+02   2.7074891e+02   2.7090990e+02   2.7300000e+02   2.7300000e+02   2.6200000e+02   2.5802162e+02   2.5199082e+02   2.5201886e+02   2.6500000e+02   2.6500000e+02   2.8200000e+02   2.8200000e+02   2.8900000e+02   2.8900000e+02   2.8200000e+02   2.7787164e+02   2.6875428e+02   2.6868269e+02   2.6665710e+02   2.6667831e+02   2.7274506e+02   2.7285261e+02   2.8898406e+02   2.9300000e+02   3.0500000e+02   3.0500000e+02   3.0400000e+02   3.0400000e+02   2.9575097e+02   2.9556413e+02   2.9345679e+02   2.9341170e+02   2.9342077e+02   2.9348486e+02   2.9561026e+02   2.9580424e+02   3.0800000e+02   3.0800000e+02   3.1500000e+02   3.1500000e+02   3.0700562e+02   3.0693561e+02   3.0692075e+02   3.0697174e+02   3.1800000e+02   3.1800000e+02   3.1997278e+02   3.1987568e+02   3.2974018e+02   3.2960506e+02   3.3649508e+02   3.3642042e+02   3.3938228e+02   3.3937579e+02   3.4439268e+02   3.4442533e+02   3.5447195e+02   3.5453734e+02   3.6962880e+02   3.6975180e+02   3.8290683e+02   3.8700000e+02   3.8900000e+02   3.8900000e+02   3.8500000e+02   3.8500000e+02
1.8020912e+01   1.7976335e+01   2.3966858e+01   2.3977339e+01   3.0993066e+01   3.1003708e+01   3.8008052e+01   3.8011416e+01   4.4021052e+01   4.4042075e+01   4.9075714e+01   4.9119419e+01   5.5168213e+01   5.5216388e+01   6.5259200e+01   6.5303522e+01   7.4367763e+01   7.4471412e+01   8.2629481e+01   8.2848169e+01   9.3000000e+01   9.3000000e+01   9.1949213e+01   9.1672982e+01   9.2331521e+01   9.1958798e+01   9.1594753e+01   9.1264953e+01   9.1981910e+01   9.1750619e+01   9.2572431e+01   9.2446822e+01   9.4372066e+01   9.4345196e+01   9.9361924e+01   9.9416355e+01   1.0550106e+02   1.0560740e+02   1.1272647e+02   1.1284892e+02   1.2296412e+02   1.2307081e+02   1.3919237e+02   1.3935517e+02   1.6657424e+02   1.6685586e+02   2.0119996e+02   2.0160273e+02   2.3100000e+02   2.3100000e+02   2.3800000e+02   2.3800000e+02   2.3700000e+02   2.3700000e+02   2.4100000e+02   2.4100000e+02   2.4400000e+02   2.4400000e+02   2.3800000e+02   2.3800000e+02   2.2800000e+02   2.2800000e+02   2.2000000e+02   2.1601788e+02   2.1196457e+02   2.1191082e+02   2.0785904e+02   2.0781443e+02   2.0979361e+02   2.0980724e+02   2.2385464e+02   2.2391879e+02   2.3996672e+02   2.4400000e+02   2.5000000e+02   2.5000000e+02   2.4500000e+02   2.4500000e+02   2.3200000e+02   2.3200000e+02   2.1600000e+02   2.1600000e+02   2.0600000e+02   2.0600000e+02   2.0100000e+02   2.0100000e+02   2.0100000e+02   2.0100000e+02   2.0100000e+02   2.0100000e+02   2.0100000e+02   2.0100000e+02   2.0200000e+02   2.0200000e+02   2.0500000e+02   2.0500000e+02   2.0500000e+02   2.0500000e+02   2.0100000e+02   1.9699134e+02   1.9990766e+02   1.9984138e+02   2.0980532e+02   2.0979770e+02   2.1981398e+02   2.1984914e+02   2.2789767e+02   2.2795028e+02   2.3798766e+02   2.4200000e+02   2.4900000e+02   2.4900000e+02   2.5300000e+02   2.5300000e+02   2.5700000e+02   2.5288237e+02   2.5673162e+02   2.5664662e+02   2.6263198e+02   2.6268650e+02   2.7080366e+02   2.7095951e+02   2.7300000e+02   2.7300000e+02   2.6200000e+02   2.5803986e+02   2.5200406e+02   2.5202185e+02   2.6500000e+02   2.6500000e+02   2.8200000e+02   2.8200000e+02   2.8900000e+02   2.8900000e+02   2.8200000e+02   2.7793898e+02   2.6882646e+02   2.6873591e+02   2.6668560e+02   2.6668262e+02   2.7272834e+02   2.7281983e+02   2.8894828e+02   2.9300000e+02   3.0500000e+02   3.0500000e+02   3.0400000e+02   3.0400000e+02   2.9581409e+02   2.9564512e+02   2.9354824e+02   2.9350603e+02   2.9350534e+02   2.9354799e+02   2.9564059e+02   2.9578432e+02   3.0395790e+02   3.0800000e+02   3.1500000e+02   3.1500000e+02   3.1100000e+02   3.0697812e+02   3.0694609e+02   3.0699305e+02   3.1800000e+02   3.1800000e+02   3.2400000e+02   3.2400000e+02   3.2988650e+02   3.2972017e+02   3.3658904e+02   3.3650288e+02   3.3946008e+02   3.3945244e+02   3.4446635e+02   3.4448809e+02   3.5451644e+02   3.5456288e+02   3.6963926e+02   3.6975288e+02   3.8290441e+02   3.8700000e+02   3.8900000e+02   3.8900000e+02   3.8500000e+02   3.8500000e+02
1.9046627e+01   1.9004716e+01   2.5997906e+01   2.6010300e+01   3.2024596e+01   3.2027106e+01   3.8015040e+01   3.7996563e+01   4.2981433e+01   4.2976870e+01   4.7985797e+01   4.8007521e+01   5.3039367e+01   5.3078541e+01   6.2124493e+01   6.2182677e+01   7.1264813e+01   7.1385594e+01   7.7559908e+01   7.7799104e+01   8.9000000e+01   8.9000000e+01   9.6000000e+01   9.1816922e+01   9.3444172e+01   9.3005584e+01   9.2583453e+01   9.2211286e+01   9.2897624e+01   9.2642456e+01   9.3443592e+01   9.3298429e+01   9.6204199e+01   9.6157783e+01   1.0315559e+02   1.0319340e+02   1.1126676e+02   1.1137129e+02   1.1950332e+02   1.1965687e+02   1.2680363e+02   1.2690458e+02   1.3801439e+02   1.3817146e+02   1.5838606e+02   1.5866061e+02   1.8899285e+02   1.8937357e+02   2.2277103e+02   2.2700000e+02   2.4500000e+02   2.4500000e+02   2.4100000e+02   2.4100000e+02   2.3300000e+02   2.3300000e+02   2.3200000e+02   2.3200000e+02   2.2700000e+02   2.2700000e+02   2.2000000e+02   2.1603653e+02   2.1303289e+02   2.1302391e+02   2.1000106e+02   2.0997006e+02   2.0492759e+02   2.0486207e+02   2.0381043e+02   2.0378798e+02   2.0879886e+02   2.0883823e+02   2.1589720e+02   2.1597111e+02   2.3200000e+02   2.3200000e+02   2.3900000e+02   2.3900000e+02   2.3100000e+02   2.3100000e+02   2.1800000e+02   2.1800000e+02   2.0700000e+02   2.0700000e+02   2.0200000e+02   2.0200000e+02   2.0100000e+02   2.0100000e+02   2.0100000e+02   2.0100000e+02   2.0100000e+02   2.0100000e+02   2.0100000e+02   2.0100000e+02   2.0100000e+02   2.0100000e+02   2.0100000e+02   2.0100000e+02   2.0100000e+02   1.9698439e+02   2.0091814e+02   2.0087488e+02   2.1285190e+02   2.1284570e+02   2.2585295e+02   2.2586924e+02   2.2888884e+02   2.2890739e+02   2.3193272e+02   2.3198084e+02   2.4200000e+02   2.4200000e+02   2.5300000e+02   2.5300000e+02   2.6100000e+02   2.5688517e+02   2.5874459e+02   2.5867101e+02   2.6566666e+02   2.6573176e+02   2.7486659e+02   2.7900000e+02   2.7600000e+02   2.7600000e+02   2.6300000e+02   2.6300000e+02   2.5102756e+02   2.5102954e+02   2.6200000e+02   2.6200000e+02   2.8100000e+02   2.8100000e+02   2.9700000e+02   2.9700000e+02   2.9200000e+02   2.9200000e+02   2.7492042e+02   2.7480803e+02   2.6873241e+02   2.6870658e+02   2.7373323e+02   2.7381181e+02   2.9093741e+02   2.9500000e+02   3.0900000e+02   3.0900000e+02   3.1100000e+02   3.0697625e+02   3.0482454e+02   3.0470845e+02   3.0164545e+02   3.0162099e+02   2.9760884e+02   2.9762253e+02   2.9767716e+02   2.9777940e+02   3.0792425e+02   3.1200000e+02   3.2000000e+02   3.2000000e+02   3.1800000e+02   3.1400120e+02   3.1296482e+02   3.1300438e+02   3.2300000e+02   3.2300000e+02   3.2700000e+02   3.2700000e+02   3.3000000e+02   3.2584344e+02   3.3169446e+02   3.3160249e+02   3.3456392e+02   3.3456825e+02   3.3859281e+02   3.3860556e+02   3.4960561e+02   3.4962283e+02   3.6567647e+02   3.6577364e+02   3.7891301e+02   3.8300000e+02   3.8700000e+02   3.8700000e+02   3.8300000e+02   3.8300000e+02
1.9081188e+01   1.9054319e+01   2.6065171e+01   2.6095830e+01   3.2121746e+01   3.2118337e+01   3.8082553e+01   3.8032586e+01   4.2986294e+01   4.2953634e+01   4.7938513e+01   4.7940786e+01   5.2958495e+01   5.2989700e+01   6.2034259e+01   6.2095617e+01   7.1181382e+01   7.1302768e+01   7.7474387e+01   7.7716614e+01   8.9000000e+01   8.9000000e+01   9.6000000e+01   9.6000000e+01   9.3653144e+01   9.3073528e+01   9.2564373e+01   9.2144388e+01   9.2801621e+01   9.2525288e+01   9.3308321e+01   9.3145953e+01   9.6034670e+01   9.5971334e+01   1.0295291e+02   1.0297649e+02   1.1103945e+02   1.1113987e+02   1.1927756e+02   1.1945445e+02   1.2787846e+02   1.2671740e+02   1.3781521e+02   1.3797029e+02   1.5818375e+02   1.5845523e+02   1.8878229e+02   1.8915995e+02   2.2258338e+02   2.2700000e+02   2.4500000e+02   2.4500000e+02   2.4100000e+02   2.4100000e+02   2.3300000e+02   2.3300000e+02   2.3200000e+02   2.3200000e+02   2.2700000e+02   2.2303053e+02   2.1602536e+02   2.1602266e+02   2.1304333e+02   2.1700000e+02   2.1400000e+02   2.1400000e+02   2.0900000e+02   2.0495139e+02   2.0386400e+02   2.0380306e+02   2.0878007e+02   2.0879844e+02   2.1585607e+02   2.1594746e+02   2.3200000e+02   2.3200000e+02   2.3900000e+02   2.3900000e+02   2.3100000e+02   2.3100000e+02   2.1800000e+02   2.1800000e+02   2.0700000e+02   2.0700000e+02   2.0200000e+02   2.0200000e+02   2.0100000e+02   2.0100000e+02   2.0100000e+02   2.0100000e+02   2.0100000e+02   2.0100000e+02   2.0100000e+02   2.0100000e+02   2.0100000e+02   2.0100000e+02   2.0100000e+02   2.0100000e+02   2.0100000e+02   1.9700554e+02   2.0096442e+02   2.0095249e+02   2.1294593e+02   2.1294371e+02   2.2594606e+02   2.2594957e+02   2.2894557e+02   2.2892211e+02   2.3191077e+02   2.3192940e+02   2.3798054e+02   2.4200000e+02   2.5300000e+02   2.5300000e+02   2.6100000e+02   2.5686963e+02   2.5874787e+02   2.5869171e+02   2.6569807e+02   2.6576769e+02   2.7490011e+02   2.7900000e+02   2.7600000e+02   2.7600000e+02   2.6300000e+02   2.6300000e+02   2.5104070e+02   2.5103619e+02   2.6200000e+02   2.6200000e+02   2.8100000e+02   2.8100000e+02   2.9700000e+02   2.9700000e+02   2.9200000e+02   2.9200000e+02   2.7900000e+02   2.7488971e+02   2.6879216e+02   2.6874628e+02   2.7375480e+02   2.7381984e+02   2.9093830e+02   2.9500000e+02   3.0900000e+02   3.0900000e+02   3.1100000e+02   3.0696193e+02   3.0484668e+02   3.0477706e+02   3.0176362e+02   3.0178375e+02   2.9774658e+02   2.9771844e+02   2.9772900e+02   2.9779072e+02   3.0790814e+02   3.1200000e+02   3.2000000e+02   3.2000000e+02   3.1800000e+02   3.1401693e+02   3.1298001e+02   3.1301193e+02   3.2300000e+02   3.2300000e+02   3.2700000e+02   3.2700000e+02   3.3000000e+02   3.2593669e+02   3.3179775e+02   3.3170876e+02   3.3468468e+02   3.3471992e+02   3.3878499e+02   3.3879036e+02   3.4973574e+02   3.4970956e+02   3.6573494e+02   3.6581111e+02   3.7893092e+02   3.8300000e+02   3.8700000e+02   3.8700000e+02   3.8300000e+02   3.8300000e+02
2.7123043e+01   2.7121640e+01   3.3165778e+01   3.3236836e+01   3.7297483e+01   3.7290880e+01   4.1213673e+01   4.1116975e+01   4.5031276e+01   4.4967985e+01   4.8929675e+01   4.8914814e+01   5.3920651e+01   5.3944484e+01   6.2984773e+01   6.3042166e+01   7.1120183e+01   7.1225452e+01   7.5367090e+01   7.5554846e+01   8.1790794e+01   8.6000000e+01   9.4000000e+01   9.4000000e+01   9.7000000e+01   9.2089580e+01   9.3492519e+01   9.3043182e+01   9.2684540e+01   9.2395068e+01   9.4164923e+01   9.3988691e+01   9.8862766e+01   9.8784408e+01   1.0575126e+02   1.0576097e+02   1.1281167e+02   1.1290157e+02   1.2102884e+02   1.2118730e+02   1.2734557e+02   1.2745982e+02   1.3558209e+02   1.3574861e+02   1.4996781e+02   1.5024128e+02   1.7456769e+02   1.7494262e+02   2.0635530e+02   2.0677042e+02   2.3800000e+02   2.3800000e+02   2.4200000e+02   2.4200000e+02   2.3500000e+02   2.3500000e+02   2.2700000e+02   2.2700000e+02   2.1900000e+02   2.1503531e+02   2.1202626e+02   2.1204192e+02   2.1500000e+02   2.1500000e+02   2.1500000e+02   2.1500000e+02   2.1200000e+02   2.1200000e+02   2.0394650e+02   2.0384582e+02   2.0478841e+02   2.0478612e+02   2.1083821e+02   2.1093773e+02   2.2500000e+02   2.2500000e+02   2.3400000e+02   2.3400000e+02   2.3000000e+02   2.3000000e+02   2.1800000e+02   2.1800000e+02   2.0700000e+02   2.0700000e+02   2.0100000e+02   2.0100000e+02   2.0100000e+02   2.0100000e+02   2.0100000e+02   2.0100000e+02   2.0100000e+02   2.0100000e+02   2.0100000e+02   2.0100000e+02   2.0100000e+02   2.0100000e+02   2.0100000e+02   2.0100000e+02   2.0400000e+02   2.0400000e+02   2.1002494e+02   2.1400000e+02   2.2900000e+02   2.2900000e+02   2.4200000e+02   2.4200000e+02   2.4300000e+02   2.3898289e+02   2.3492498e+02   2.3490430e+02   2.3692360e+02   2.3697632e+02   2.4900000e+02   2.4900000e+02   2.5593632e+02   2.5582277e+02   2.6174682e+02   2.6171737e+02   2.6973349e+02   2.6980074e+02   2.7892200e+02   2.8300000e+02   2.8100000e+02   2.8100000e+02   2.6700000e+02   2.6700000e+02   2.5800000e+02   2.5800000e+02   2.6100000e+02   2.6100000e+02   2.7600000e+02   2.7600000e+02   3.0000000e+02   3.0000000e+02   3.0600000e+02   3.0600000e+02   2.8900000e+02   2.8495124e+02   2.7285967e+02   2.7279876e+02   2.7578879e+02   2.7583812e+02   2.9294545e+02   2.9700000e+02   3.1200000e+02   3.1200000e+02   3.1700000e+02   3.1297470e+02   3.1388559e+02   3.1385194e+02   3.1289708e+02   3.1700000e+02   3.0692191e+02   3.0683572e+02   3.0379523e+02   3.0381072e+02   3.0888310e+02   3.0899534e+02   3.2000000e+02   3.2000000e+02   3.2300000e+02   3.1903955e+02   3.1799954e+02   3.1801969e+02   3.2500000e+02   3.2500000e+02   3.3200000e+02   3.3200000e+02   3.3300000e+02   3.3300000e+02   3.2789805e+02   3.2781021e+02   3.3280522e+02   3.3288499e+02   3.4400000e+02   3.4400000e+02   3.5088214e+02   3.5080664e+02   3.6380865e+02   3.6386579e+02   3.7595858e+02   3.8000000e+02   3.8400000e+02   3.8400000e+02   3.8100000e+02   3.8100000e+02
2.7167436e+01   2.7197414e+01   3.3288286e+01   3.3430235e+01   3.7578486e+01   3.7571566e+01   4.1405016e+01   4.1237271e+01   4.5105452e+01   4.5012158e+01   4.8953372e+01   4.8924833e+01   5.3921841e+01   5.3940177e+01   6.2975901e+01   6.3026039e+01   7.1089439e+01   7.1167584e+01   7.5264267e+01   7.5380714e+01   8.1508281e+01   8.1612610e+01   8.9608480e+01   8.9514872e+01   9.2290057e+01   9.1788302e+01   9.3307374e+01   9.2893072e+01   9.2542748e+01   9.2251200e+01   9.4013538e+01   9.3826670e+01   9.8688317e+01   9.8596479e+01   1.0554924e+02   1.0554477e+02   1.1258111e+02   1.1265574e+02   1.2076426e+02   1.2089735e+02   1.2703786e+02   1.2717546e+02   1.3532607e+02   1.3551076e+02   1.4974083e+02   1.5002072e+02   1.7435136e+02   1.7473108e+02   2.0615486e+02   2.0661104e+02   2.3800000e+02   2.3800000e+02   2.4200000e+02   2.4200000e+02   2.3500000e+02   2.3500000e+02   2.2700000e+02   2.2700000e+02   2.1900000e+02   2.1900000e+02   2.1205845e+02   2.1600000e+02   2.1500000e+02   2.1500000e+02   2.1500000e+02   2.1500000e+02   2.1200000e+02   2.1200000e+02   2.0800000e+02   2.0389942e+02   2.0480862e+02   2.0478791e+02   2.1083286e+02   2.1093428e+02   2.2500000e+02   2.2500000e+02   2.3400000e+02   2.3400000e+02   2.3000000e+02   2.3000000e+02   2.1800000e+02   2.1800000e+02   2.0700000e+02   2.0700000e+02   2.0100000e+02   2.0100000e+02   2.0100000e+02   2.0100000e+02   2.0100000e+02   2.0100000e+02   2.0100000e+02   2.0100000e+02   2.0100000e+02   2.0100000e+02   2.0100000e+02   2.0100000e+02   2.0100000e+02   2.0100000e+02   2.0400000e+02   2.0400000e+02   2.1400000e+02   2.1400000e+02   2.2900000e+02   2.2900000e+02   2.4200000e+02   2.4200000e+02   2.4300000e+02   2.4300000e+02   2.3496101e+02   2.3490726e+02   2.3689338e+02   2.3690513e+02   2.4492202e+02   2.4490316e+02   2.5584382e+02   2.5578963e+02   2.6176377e+02   2.6176619e+02   2.6978582e+02   2.6984071e+02   2.7894347e+02   2.8300000e+02   2.8100000e+02   2.8100000e+02   2.6700000e+02   2.6700000e+02   2.5800000e+02   2.5800000e+02   2.6100000e+02   2.6100000e+02   2.7600000e+02   2.7600000e+02   3.0000000e+02   3.0000000e+02   3.0600000e+02   3.0600000e+02   2.8900000e+02   2.8900000e+02   2.7294461e+02   2.7286415e+02   2.7583201e+02   2.7586295e+02   2.9295605e+02   2.9700000e+02   3.1200000e+02   3.1200000e+02   3.1700000e+02   3.1300527e+02   3.1393592e+02   3.1391400e+02   3.1296711e+02   3.1700000e+02   3.1100000e+02   3.0695874e+02   3.0387082e+02   3.0384139e+02   3.0887567e+02   3.0896710e+02   3.2000000e+02   3.2000000e+02   3.2300000e+02   3.2300000e+02   3.1802699e+02   3.1802644e+02   3.2500000e+02   3.2500000e+02   3.3200000e+02   3.3200000e+02   3.3300000e+02   3.3300000e+02   3.2795948e+02   3.2789139e+02   3.3290229e+02   3.3298822e+02   3.4400000e+02   3.4400000e+02   3.5096049e+02   3.5088910e+02   3.6389317e+02   3.6394568e+02   3.7599967e+02   3.8000000e+02   3.8400000e+02   3.8400000e+02   3.8100000e+02   3.8100000e+02
3.3206374e+01   3.3264973e+01   3.8403063e+01   3.8638807e+01   4.7000000e+01   4.7000000e+01   4.4617514e+01   4.4363379e+01   4.6191741e+01   4.6075884e+01   4.9003112e+01   4.8966068e+01   5.1958837e+01   5.1975834e+01   6.0010088e+01   6.0054312e+01   7.1101378e+01   7.1147766e+01   7.4195160e+01   7.4243545e+01   7.9283591e+01   7.9291221e+01   8.6230900e+01   8.6088853e+01   8.9844798e+01   8.9481539e+01   9.2090561e+01   9.1719606e+01   9.4387023e+01   9.4098888e+01   9.8857278e+01   9.8661790e+01   1.0351236e+02   1.0340783e+02   1.0734707e+02   1.0732836e+02   1.1234934e+02   1.1240773e+02   1.1849859e+02   1.1861470e+02   1.2574792e+02   1.2589543e+02   1.3306397e+02   1.3326478e+02   1.4350673e+02   1.4379505e+02   1.6013245e+02   1.6052023e+02   1.8996028e+02   1.9046174e+02   2.2700000e+02   2.2700000e+02   2.3700000e+02   2.3700000e+02   2.3200000e+02   2.3200000e+02   2.2400000e+02   2.2400000e+02   2.1900000e+02   2.1900000e+02   2.1900000e+02   2.1900000e+02   2.2000000e+02   2.2000000e+02   2.2200000e+02   2.2200000e+02   2.1600000e+02   2.1600000e+02   2.0600000e+02   2.0192487e+02   2.0282393e+02   2.0279273e+02   2.1383185e+02   2.1393301e+02   2.2700000e+02   2.2700000e+02   2.3000000e+02   2.3000000e+02   2.2200000e+02   2.2200000e+02   2.1000000e+02   2.1000000e+02   2.0300000e+02   2.0300000e+02   2.0100000e+02   2.0100000e+02   2.0100000e+02   2.0100000e+02   2.0100000e+02   2.0100000e+02   2.0100000e+02   2.0100000e+02   2.0100000e+02   2.0100000e+02   2.0100000e+02   2.0100000e+02   2.0600000e+02   2.0600000e+02   2.1500000e+02   2.1500000e+02   2.2500000e+02   2.2500000e+02   2.4100000e+02   2.4100000e+02   2.5600000e+02   2.5600000e+02   2.5400000e+02   2.5400000e+02   2.4299367e+02   2.4293787e+02   2.4190638e+02   2.4188674e+02   2.4486147e+02   2.4482945e+02   2.5579923e+02   2.5579101e+02   2.6581745e+02   2.6586508e+02   2.7386954e+02   2.7389485e+02   2.8096949e+02   2.8500000e+02   2.8500000e+02   2.8500000e+02   2.7300000e+02   2.7300000e+02   2.6000000e+02   2.6000000e+02   2.5900000e+02   2.5900000e+02   2.7000000e+02   2.7000000e+02   2.9400000e+02   2.9400000e+02   3.1300000e+02   3.1300000e+02   3.0300000e+02   3.0300000e+02   2.8400000e+02   2.7993437e+02   2.7887951e+02   2.7889141e+02   2.9796856e+02   3.0200000e+02   3.2000000e+02   3.2000000e+02   3.2600000e+02   3.2600000e+02   3.2300100e+02   3.2296778e+02   3.2400544e+02   3.2800000e+02   3.2300000e+02   3.2300000e+02   3.1394624e+02   3.1387831e+02   3.1087929e+02   3.1094888e+02   3.2000000e+02   3.2000000e+02   3.2500000e+02   3.2500000e+02   3.2404839e+02   3.2402944e+02   3.2804999e+02   3.3200000e+02   3.3700000e+02   3.3700000e+02   3.3800000e+02   3.3800000e+02   3.3200987e+02   3.3195799e+02   3.3598162e+02   3.4000000e+02   3.4800000e+02   3.4800000e+02   3.5300538e+02   3.5295932e+02   3.6498663e+02   3.6900000e+02   3.7900000e+02   3.7900000e+02   3.8300000e+02   3.8300000e+02   3.8000000e+02   3.8000000e+02
3.3231884e+01   3.3305355e+01   3.8460884e+01   3.8710663e+01   4.7000000e+01   4.7000000e+01   4.4693580e+01   4.4447457e+01   4.6273017e+01   4.6151223e+01   4.9073268e+01   4.9034096e+01   5.2028824e+01   5.2050856e+01   6.0091081e+01   6.0136354e+01   7.1170925e+01   7.1183367e+01   7.4180726e+01   7.4168227e+01   7.9140528e+01   7.9082283e+01   8.5973120e+01   8.5799036e+01   8.9551849e+01   8.9236927e+01   9.1892159e+01   9.1550033e+01   9.4230724e+01   9.3945260e+01   9.8699359e+01   9.8495771e+01   1.0333563e+02   1.0321888e+02   1.0714482e+02   1.0711226e+02   1.1211906e+02   1.1216267e+02   1.1823916e+02   1.1834366e+02   1.2547260e+02   1.2562493e+02   1.3280422e+02   1.3301687e+02   1.4326907e+02   1.4356550e+02   1.5990920e+02   1.6030189e+02   1.8974374e+02   1.9022875e+02   2.2272034e+02   2.2700000e+02   2.3700000e+02   2.3700000e+02   2.3200000e+02   2.3200000e+02   2.2400000e+02   2.2400000e+02   2.1900000e+02   2.1900000e+02   2.1900000e+02   2.1900000e+02   2.2000000e+02   2.2000000e+02   2.2200000e+02   2.2200000e+02   2.1600000e+02   2.1600000e+02   2.0600000e+02   2.0193617e+02   2.0283293e+02   2.0279581e+02   2.1383003e+02   2.1393047e+02   2.2700000e+02   2.2700000e+02   2.3000000e+02   2.3000000e+02   2.2200000e+02   2.2200000e+02   2.1000000e+02   2.1000000e+02   2.0300000e+02   2.0300000e+02   2.0100000e+02   2.0100000e+02   2.0100000e+02   2.0100000e+02   2.0100000e+02   2.0100000e+02   2.0100000e+02   2.0100000e+02   2.0100000e+02   2.0100000e+02   2.0100000e+02   2.0100000e+02   2.0600000e+02   2.0600000e+02   2.1500000e+02   2.1500000e+02   2.2500000e+02   2.2500000e+02   2.4100000e+02   2.4100000e+02   2.5600000e+02   2.5600000e+02   2.5400000e+02   2.5400000e+02   2.4700000e+02   2.4299870e+02   2.4197271e+02   2.4193987e+02   2.4487269e+02   2.4481990e+02   2.5579963e+02   2.5582308e+02   2.6590358e+02   2.7000000e+02   2.7398803e+02   2.7396177e+02   2.8099926e+02   2.8500000e+02   2.8500000e+02   2.8500000e+02   2.7300000e+02   2.7300000e+02   2.6000000e+02   2.6000000e+02   2.5900000e+02   2.5900000e+02   2.7000000e+02   2.7000000e+02   2.9400000e+02   2.9400000e+02   3.1300000e+02   3.1300000e+02   3.0300000e+02   3.0300000e+02   2.8400000e+02   2.7998555e+02   2.7892651e+02   2.7892141e+02   2.9798215e+02   3.0200000e+02   3.2000000e+02   3.2000000e+02   3.2600000e+02   3.2600000e+02   3.2700000e+02   3.2301250e+02   3.2402638e+02   3.2800000e+02   3.2300000e+02   3.2300000e+02   3.1400123e+02   3.1391681e+02   3.1088553e+02   3.1091795e+02   3.1600130e+02   3.2000000e+02   3.2500000e+02   3.2500000e+02   3.2800000e+02   3.2405726e+02   3.2805523e+02   3.2806398e+02   3.3700000e+02   3.3700000e+02   3.3800000e+02   3.3800000e+02   3.3600000e+02   3.3201027e+02   3.3602143e+02   3.4000000e+02   3.4800000e+02   3.4800000e+02   3.5303461e+02   3.5301481e+02   3.6900000e+02   3.6900000e+02   3.7900000e+02   3.7900000e+02   3.8300000e+02   3.8300000e+02   3.8000000e+02   3.8000000e+02
3.3242231e+01   3.3316604e+01   3.7464874e+01   3.7694856e+01   4.7000000e+01   4.2870189e+01   4.5678424e+01   4.5502780e+01   4.7353663e+01   4.7238056e+01   5.0161347e+01   5.0125300e+01   5.1127949e+01   5.1163689e+01   6.0221813e+01   6.0283484e+01   7.2316983e+01   7.2289252e+01   7.6232440e+01   7.6163961e+01   7.9082855e+01   7.8976789e+01   8.2829409e+01   8.2628339e+01   8.4370441e+01   8.4064930e+01   8.7734268e+01   8.7401705e+01   9.2085285e+01   9.1796938e+01   9.5544106e+01   9.5330857e+01   9.7159381e+01   9.7030408e+01   1.0094350e+02   1.0089776e+02   1.0489150e+02   1.0492235e+02   1.1098743e+02   1.1108376e+02   1.2020942e+02   1.2036405e+02   1.3054990e+02   1.3077044e+02   1.4103058e+02   1.4133355e+02   1.5568229e+02   1.5607884e+02   1.7652390e+02   1.7701490e+02   2.0754029e+02   2.1200000e+02   2.3300000e+02   2.3300000e+02   2.3400000e+02   2.3400000e+02   2.2900000e+02   2.2900000e+02   2.2500000e+02   2.2500000e+02   2.2500000e+02   2.2500000e+02   2.2105126e+02   2.2104943e+02   2.1905925e+02   2.2300000e+02   2.1400000e+02   2.1400000e+02   2.0400000e+02   1.9994296e+02   1.9783913e+02   1.9779613e+02   2.0682341e+02   2.0692152e+02   2.2300000e+02   2.2300000e+02   2.2200000e+02   2.2200000e+02   2.1100000e+02   2.1100000e+02   2.0300000e+02   2.0300000e+02   2.0100000e+02   2.0100000e+02   2.0100000e+02   2.0100000e+02   2.0100000e+02   2.0100000e+02   2.0100000e+02   2.0100000e+02   2.0100000e+02   2.0100000e+02   2.0100000e+02   2.0100000e+02   1.9902763e+02   1.9904135e+02   2.1200000e+02   2.1200000e+02   2.2300000e+02   2.2300000e+02   2.3200000e+02   2.3200000e+02   2.4500000e+02   2.4500000e+02   2.6000000e+02   2.6000000e+02   2.5900000e+02   2.5900000e+02   2.5300000e+02   2.5300000e+02   2.5400000e+02   2.5400000e+02   2.4792671e+02   2.4784716e+02   2.5482767e+02   2.5486472e+02   2.6295795e+02   2.6700000e+02   2.7400000e+02   2.7002275e+02   2.7702578e+02   2.8100000e+02   2.8500000e+02   2.8500000e+02   2.8100000e+02   2.8100000e+02   2.6800000e+02   2.6800000e+02   2.6200000e+02   2.6200000e+02   2.6800000e+02   2.6800000e+02   2.8200000e+02   2.8200000e+02   3.0200000e+02   3.0200000e+02   3.0800000e+02   3.0800000e+02   2.9900000e+02   2.9900000e+02   2.9197674e+02   2.9195245e+02   3.0799629e+02   3.1200000e+02   3.2900000e+02   3.2900000e+02   3.3600000e+02   3.3600000e+02   3.3700000e+02   3.3302984e+02   3.3403085e+02   3.3800000e+02   3.3400000e+02   3.3400000e+02   3.2700000e+02   3.2296442e+02   3.1689967e+02   3.1689813e+02   3.1496025e+02   3.1900000e+02   3.2200000e+02   3.2200000e+02   3.2800000e+02   3.2800000e+02   3.3200000e+02   3.2807703e+02   3.3800000e+02   3.3800000e+02   3.4400000e+02   3.4400000e+02   3.4300000e+02   3.3903058e+02   3.4203604e+02   3.4600000e+02   3.5600000e+02   3.5600000e+02   3.6105549e+02   3.6104121e+02   3.7600000e+02   3.7600000e+02   3.8100000e+02   3.8100000e+02   3.8100000e+02   3.8100000e+02   3.7700000e+02   3.7700000e+02
3.3241731e+01   3.3308560e+01   3.7431989e+01   3.7595682e+01   4.2749036e+01   4.2747476e+01   4.5678096e+01   4.5579184e+01   4.7454058e+01   4.7341760e+01   5.0265934e+01   5.0235269e+01   5.1250531e+01   5.1308335e+01   6.0400196e+01   6.0505780e+01   7.2572098e+01   7.2473587e+01   7.6349530e+01   7.6229030e+01   7.9107294e+01   7.8968474e+01   8.2792817e+01   8.2565125e+01   8.4284876e+01   8.3964513e+01   8.7623775e+01   8.7282497e+01   9.1956777e+01   9.1658145e+01   9.5393942e+01   9.5168732e+01   9.6984766e+01   9.6843096e+01   1.0074368e+02   1.0068551e+02   1.0466738e+02   1.0468721e+02   1.1074307e+02   1.1083305e+02   1.1995583e+02   1.2011138e+02   1.3030109e+02   1.3052724e+02   1.4079285e+02   1.4110055e+02   1.5545259e+02   1.5585154e+02   1.7629956e+02   1.7680092e+02   2.0736916e+02   2.1200000e+02   2.3300000e+02   2.3300000e+02   2.3400000e+02   2.3400000e+02   2.2900000e+02   2.2900000e+02   2.2102858e+02   2.2100996e+02   2.2100624e+02   2.2100943e+02   2.2101332e+02   2.2103555e+02   2.2300000e+02   2.2300000e+02   2.1400000e+02   2.1400000e+02   2.0400000e+02   1.9995254e+02   1.9784804e+02   1.9779476e+02   2.0680795e+02   2.0689527e+02   2.2300000e+02   2.2300000e+02   2.2200000e+02   2.2200000e+02   2.1100000e+02   2.1100000e+02   2.0300000e+02   2.0300000e+02   2.0100000e+02   2.0100000e+02   2.0100000e+02   2.0100000e+02   2.0100000e+02   2.0100000e+02   2.0100000e+02   2.0100000e+02   2.0100000e+02   2.0100000e+02   2.0100000e+02   2.0100000e+02   2.0300000e+02   1.9904596e+02   2.0805018e+02   2.1200000e+02   2.2300000e+02   2.2300000e+02   2.3200000e+02   2.3200000e+02   2.4500000e+02   2.4500000e+02   2.6000000e+02   2.6000000e+02   2.5900000e+02   2.5900000e+02   2.5300000e+02   2.5300000e+02   2.5400000e+02   2.5400000e+02   2.4795998e+02   2.4788367e+02   2.5487139e+02   2.5491633e+02   2.6300393e+02   2.6700000e+02   2.7400000e+02   2.7005661e+02   2.7704145e+02   2.8100000e+02   2.8500000e+02   2.8500000e+02   2.8100000e+02   2.8100000e+02   2.6800000e+02   2.6800000e+02   2.6200000e+02   2.6200000e+02   2.6800000e+02   2.6800000e+02   2.8200000e+02   2.8200000e+02   3.0200000e+02   3.0200000e+02   3.0800000e+02   3.0800000e+02   2.9900000e+02   2.9900000e+02   2.9201344e+02   2.9198228e+02   3.0800926e+02   3.1200000e+02   3.2900000e+02   3.2900000e+02   3.3600000e+02   3.3600000e+02   3.3700000e+02   3.3304110e+02   3.3402349e+02   3.3405277e+02   3.3400000e+02   3.3400000e+02   3.2700000e+02   3.2300679e+02   3.1692235e+02   3.1688597e+02   3.1491181e+02   3.1499241e+02   3.2200000e+02   3.2200000e+02   3.2800000e+02   3.2800000e+02   3.3200000e+02   3.3200000e+02   3.3800000e+02   3.3800000e+02   3.4400000e+02   3.4400000e+02   3.4300000e+02   3.3903374e+02   3.4203530e+02   3.4600000e+02   3.5600000e+02   3.5600000e+02   3.6500000e+02   3.6500000e+02   3.7600000e+02   3.7600000e+02   3.8100000e+02   3.8100000e+02   3.8100000e+02   3.8100000e+02   3.7700000e+02   3.7700000e+02
3.1238282e+01   3.1300563e+01   3.5409229e+01   3.5542365e+01   4.2663627e+01   4.2729667e+01   4.7753522e+01   4.7731704e+01   4.8592891e+01   4.8463678e+01   4.8382694e+01   4.8357207e+01   4.9386829e+01   4.9470448e+01   5.9608141e+01   5.9795773e+01   7.7000000e+01   7.2715783e+01   7.6513471e+01   7.6351931e+01   7.8206722e+01   7.8053797e+01   7.8862803e+01   7.8606173e+01   7.8288619e+01   7.7931887e+01   8.0560025e+01   8.0193327e+01   8.3846493e+01   8.3529767e+01   8.7249471e+01   8.7009548e+01   8.9811787e+01   8.9657083e+01   9.1545230e+01   9.1475539e+01   9.7446507e+01   9.7457001e+01   1.0750517e+02   1.0758987e+02   1.1770994e+02   1.1786561e+02   1.3005756e+02   1.3028724e+02   1.4255670e+02   1.4286741e+02   1.5622121e+02   1.5661947e+02   1.7406400e+02   1.7455594e+02   2.0509339e+02   2.0564758e+02   2.3300000e+02   2.3300000e+02   2.3100000e+02   2.3100000e+02   2.2700000e+02   2.2700000e+02   2.2199957e+02   2.2195972e+02   2.2195720e+02   2.2197848e+02   2.2101338e+02   2.2500000e+02   2.2200000e+02   2.2200000e+02   2.1600000e+02   2.1600000e+02   2.0500000e+02   2.0097851e+02   1.9586792e+02   1.9579465e+02   1.9878205e+02   1.9883331e+02   2.0693487e+02   2.1100000e+02   2.1100000e+02   2.1100000e+02   2.0200000e+02   2.0200000e+02   2.0000000e+02   2.0000000e+02   2.0100000e+02   2.0100000e+02   2.0300000e+02   2.0300000e+02   2.0200000e+02   2.0200000e+02   2.0100000e+02   2.0100000e+02   2.0200000e+02   2.0200000e+02   2.0600000e+02   2.0600000e+02   2.1000000e+02   2.1000000e+02   2.1205226e+02   2.1205363e+02   2.2700000e+02   2.2700000e+02   2.4100000e+02   2.4100000e+02   2.4900000e+02   2.4900000e+02   2.5800000e+02   2.5800000e+02   2.5800000e+02   2.5800000e+02   2.5200000e+02   2.5200000e+02   2.5500000e+02   2.5500000e+02   2.5298170e+02   2.5292406e+02   2.6192855e+02   2.6198481e+02   2.7100000e+02   2.7100000e+02   2.7500000e+02   2.7500000e+02   2.7304527e+02   2.7305002e+02   2.7900000e+02   2.7900000e+02   2.7900000e+02   2.7900000e+02   2.7000000e+02   2.7000000e+02   2.6500000e+02   2.6500000e+02   2.6900000e+02   2.6900000e+02   2.7700000e+02   2.7700000e+02   2.9500000e+02   2.9500000e+02   3.0600000e+02   3.0600000e+02   3.0700000e+02   3.0700000e+02   3.0400000e+02   3.0001363e+02   3.0701736e+02   3.1100000e+02   3.2800000e+02   3.2800000e+02   3.4100000e+02   3.4100000e+02   3.4800000e+02   3.4800000e+02   3.4402986e+02   3.4403541e+02   3.4400000e+02   3.4400000e+02   3.3900000e+02   3.3900000e+02   3.2495951e+02   3.2488254e+02   3.1686893e+02   3.1692673e+02   3.2000000e+02   3.2000000e+02   3.2200000e+02   3.2200000e+02   3.2800000e+02   3.2800000e+02   3.3700000e+02   3.3700000e+02   3.4500000e+02   3.4500000e+02   3.4900000e+02   3.4502654e+02   3.5001971e+02   3.5400000e+02   3.6200000e+02   3.6200000e+02   3.7100000e+02   3.7100000e+02   3.8200000e+02   3.8200000e+02   3.8400000e+02   3.8400000e+02   3.7600000e+02   3.7600000e+02   3.6900000e+02   3.6900000e+02
3.1237031e+01   3.1304465e+01   3.5417944e+01   3.5554993e+01   4.2687827e+01   4.2804967e+01   4.7914223e+01   5.2000000e+01   4.8759723e+01   4.8590056e+01   4.8502120e+01   4.8483246e+01   4.9525913e+01   4.9628569e+01   5.9797651e+01   6.4000000e+01   7.7000000e+01   7.2880896e+01   7.6685385e+01   7.6514599e+01   7.8371287e+01   7.8233062e+01   7.9051409e+01   7.8757969e+01   7.8379034e+01   7.7960423e+01   8.0536609e+01   8.0129200e+01   8.3750919e+01   8.3409380e+01   8.7109011e+01   8.6852001e+01   8.9639518e+01   8.9471562e+01   9.1347704e+01   9.1267161e+01   9.7228518e+01   9.7230667e+01   1.0727241e+02   1.0735235e+02   1.1747008e+02   1.1762542e+02   1.2981875e+02   1.3005082e+02   1.4232284e+02   1.4263566e+02   1.5598976e+02   1.5638571e+02   1.7382340e+02   1.7430277e+02   2.0482352e+02   2.0539066e+02   2.3300000e+02   2.3300000e+02   2.3100000e+02   2.3100000e+02   2.2700000e+02   2.2700000e+02   2.2197430e+02   2.2194107e+02   2.2195521e+02   2.2199643e+02   2.2500000e+02   2.2500000e+02   2.2200000e+02   2.2200000e+02   2.1600000e+02   2.1600000e+02   2.0500000e+02   2.0500000e+02   1.9590212e+02   1.9579906e+02   1.9875733e+02   1.9877262e+02   2.0683213e+02   2.0690987e+02   2.0696997e+02   2.1100000e+02   2.0200000e+02   2.0200000e+02   2.0000000e+02   2.0000000e+02   2.0100000e+02   2.0100000e+02   2.0300000e+02   2.0300000e+02   2.0200000e+02   2.0200000e+02   2.0100000e+02   2.0100000e+02   2.0200000e+02   2.0200000e+02   2.0600000e+02   2.0600000e+02   2.1000000e+02   2.1000000e+02   2.1600000e+02   2.1204992e+02   2.2304065e+02   2.2304022e+02   2.4100000e+02   2.4100000e+02   2.4900000e+02   2.4900000e+02   2.5800000e+02   2.5800000e+02   2.5800000e+02   2.5800000e+02   2.5200000e+02   2.5200000e+02   2.5500000e+02   2.5500000e+02   2.5299892e+02   2.5296982e+02   2.6199681e+02   2.6600000e+02   2.7100000e+02   2.7100000e+02   2.7500000e+02   2.7500000e+02   2.7304021e+02   2.7303744e+02   2.7900000e+02   2.7900000e+02   2.7900000e+02   2.7900000e+02   2.7000000e+02   2.7000000e+02   2.6104340e+02   2.6500000e+02   2.6900000e+02   2.6900000e+02   2.7700000e+02   2.7700000e+02   2.9500000e+02   2.9500000e+02   3.0600000e+02   3.0600000e+02   3.0700000e+02   3.0700000e+02   3.0400000e+02   3.0003331e+02   3.0701495e+02   3.0703938e+02   3.2800000e+02   3.2800000e+02   3.4100000e+02   3.4100000e+02   3.4800000e+02   3.4800000e+02   3.4403628e+02   3.4402173e+02   3.4004516e+02   3.4400000e+02   3.3900000e+02   3.3900000e+02   3.2499574e+02   3.2488443e+02   3.1682205e+02   3.1682051e+02   3.1586122e+02   3.1588101e+02   3.1789523e+02   3.1791835e+02   3.2396494e+02   3.2800000e+02   3.3700000e+02   3.3700000e+02   3.4500000e+02   3.4500000e+02   3.4900000e+02   3.4501063e+02   3.4998144e+02   3.5001848e+02   3.6200000e+02   3.6200000e+02   3.7100000e+02   3.7100000e+02   3.8200000e+02   3.8200000e+02   3.8400000e+02   3.8400000e+02   3.7600000e+02   3.7600000e+02   3.6900000e+02   3.6900000e+02
3.8237082e+01   3.8321099e+01   4.0460194e+01   4.0628378e+01   4.4782721e+01   4.4932876e+01   5.2000000e+01   5.2000000e+01   4.6846037e+01   4.6687706e+01   4.4612506e+01   4.4608329e+01   4.7662679e+01   4.7770206e+01   5.7919524e+01   6.2000000e+01   7.4000000e+01   7.4000000e+01   7.3874474e+01   7.3704146e+01   7.4586340e+01   7.4507316e+01   7.5399066e+01   7.5038272e+01   7.4551529e+01   7.4037189e+01   7.3540381e+01   7.3079721e+01   7.5662674e+01   7.5292055e+01   7.8969113e+01   7.8693889e+01   8.1466110e+01   8.1285149e+01   8.4149904e+01   8.4059346e+01   9.1012237e+01   9.1007178e+01   1.0404317e+02   1.0411926e+02   1.2123487e+02   1.2138971e+02   1.3358402e+02   1.3381800e+02   1.4509218e+02   1.4540669e+02   1.5776105e+02   1.5815436e+02   1.7458466e+02   1.7504868e+02   1.9754191e+02   1.9805767e+02   2.1558003e+02   2.2000000e+02   2.2200000e+02   2.2200000e+02   2.1900000e+02   2.1497086e+02   2.1793291e+02   2.1794548e+02   2.1998950e+02   2.2400000e+02   2.2500000e+02   2.2500000e+02   2.2200000e+02   2.2200000e+02   2.1500000e+02   2.1500000e+02   2.0500000e+02   2.0500000e+02   1.9591940e+02   1.9580501e+02   1.9574252e+02   1.9573127e+02   1.9676227e+02   1.9681998e+02   1.9788853e+02   1.9796018e+02   1.9899987e+02   2.0300000e+02   2.0600000e+02   2.0600000e+02   2.1000000e+02   2.1000000e+02   2.1200000e+02   2.1200000e+02   2.0700000e+02   2.0700000e+02   2.0200000e+02   2.0200000e+02   2.0700000e+02   2.0700000e+02   2.1500000e+02   2.1500000e+02   2.2500000e+02   2.2500000e+02   2.3200000e+02   2.3200000e+02   2.2703714e+02   2.2701757e+02   2.3302063e+02   2.3303165e+02   2.4600000e+02   2.4600000e+02   2.5400000e+02   2.5400000e+02   2.5600000e+02   2.5600000e+02   2.5300000e+02   2.5300000e+02   2.5600000e+02   2.5204072e+02   2.5801347e+02   2.5802225e+02   2.6900000e+02   2.6900000e+02   2.7000000e+02   2.7000000e+02   2.7100000e+02   2.7100000e+02   2.6903155e+02   2.6903063e+02   2.7206688e+02   2.7600000e+02   2.7200000e+02   2.7200000e+02   2.6900000e+02   2.6505146e+02   2.6605569e+02   2.7000000e+02   2.6900000e+02   2.6900000e+02   2.7100000e+02   2.7100000e+02   2.8400000e+02   2.8400000e+02   3.0200000e+02   3.0200000e+02   3.1200000e+02   3.1200000e+02   3.1800000e+02   3.1800000e+02   3.1602515e+02   3.1602690e+02   3.2700000e+02   3.2700000e+02   3.4200000e+02   3.4200000e+02   3.5500000e+02   3.5500000e+02   3.5800000e+02   3.5403098e+02   3.5202241e+02   3.5204564e+02   3.5200000e+02   3.5200000e+02   3.4100000e+02   3.3689318e+02   3.2377869e+02   3.2372509e+02   3.1671043e+02   3.1670928e+02   3.1571960e+02   3.1574905e+02   3.1680959e+02   3.1691155e+02   3.2900000e+02   3.2900000e+02   3.4000000e+02   3.4000000e+02   3.4900000e+02   3.4499090e+02   3.4894019e+02   3.4896658e+02   3.5700000e+02   3.5700000e+02   3.6800000e+02   3.6800000e+02   3.8200000e+02   3.8200000e+02   3.8300000e+02   3.8300000e+02   3.7500000e+02   3.7500000e+02   3.6900000e+02   3.6900000e+02
3.8230089e+01   3.8338782e+01   4.0525873e+01   4.0766003e+01   4.4924035e+01   4.9000000e+01   5.2000000e+01   5.2000000e+01   4.6882223e+01   4.6757562e+01   4.4713694e+01   4.4736389e+01   4.7802763e+01   4.7912985e+01   6.2000000e+01   6.2000000e+01   7.4000000e+01   7.4000000e+01   7.8000000e+01   7.3888352e+01   7.4815818e+01   7.4849319e+01   8.0000000e+01   7.5468346e+01   7.4784924e+01   7.4134166e+01   7.3548698e+01   7.3029109e+01   7.5571092e+01   7.5170620e+01   7.8824983e+01   7.8531837e+01   8.1289429e+01   8.1096287e+01   8.3950541e+01   8.3850941e+01   9.0796188e+01   9.0784941e+01   1.0381616e+02   1.0388900e+02   1.2100295e+02   1.2115745e+02   1.3335270e+02   1.3358865e+02   1.4486514e+02   1.4518188e+02   1.5753774e+02   1.5793047e+02   1.7435609e+02   1.7480824e+02   1.9727650e+02   1.9774446e+02   2.1518314e+02   2.1553514e+02   2.1770421e+02   2.1779263e+02   2.1483897e+02   2.1485563e+02   2.1789951e+02   2.1797868e+02   2.2400000e+02   2.2400000e+02   2.2500000e+02   2.2500000e+02   2.2200000e+02   2.2200000e+02   2.1500000e+02   2.1500000e+02   2.0500000e+02   2.0500000e+02   1.9593497e+02   1.9581943e+02   1.9574397e+02   1.9571554e+02   1.9673067e+02   1.9677993e+02   1.9785131e+02   1.9793046e+02   1.9899331e+02   2.0300000e+02   2.0600000e+02   2.0600000e+02   2.1000000e+02   2.1000000e+02   2.1200000e+02   2.1200000e+02   2.0700000e+02   2.0700000e+02   2.0200000e+02   2.0200000e+02   2.0700000e+02   2.0700000e+02   2.1500000e+02   2.1500000e+02   2.2500000e+02   2.2500000e+02   2.3200000e+02   2.3200000e+02   2.3100000e+02   2.2702796e+02   2.3300883e+02   2.3301979e+02   2.4600000e+02   2.4600000e+02   2.5400000e+02   2.5400000e+02   2.5600000e+02   2.5600000e+02   2.5300000e+02   2.5300000e+02   2.5600000e+02   2.5204665e+02   2.5804699e+02   2.6200000e+02   2.6900000e+02   2.6900000e+02   2.7000000e+02   2.7000000e+02   2.7100000e+02   2.6704558e+02   2.6902068e+02   2.6905022e+02   2.7600000e+02   2.7600000e+02   2.7200000e+02   2.7200000e+02   2.6505450e+02   2.6505180e+02   2.7000000e+02   2.7000000e+02   2.6900000e+02   2.6900000e+02   2.7100000e+02   2.7100000e+02   2.8400000e+02   2.8400000e+02   3.0200000e+02   3.0200000e+02   3.1200000e+02   3.1200000e+02   3.1800000e+02   3.1800000e+02   3.1603396e+02   3.1601752e+02   3.2303532e+02   3.2700000e+02   3.4200000e+02   3.4200000e+02   3.5500000e+02   3.5500000e+02   3.5800000e+02   3.5800000e+02   3.5202991e+02   3.5202075e+02   3.4804111e+02   3.5200000e+02   3.4100000e+02   3.3687135e+02   3.2373716e+02   3.2365395e+02   3.1660642e+02   3.1658274e+02   3.1558041e+02   3.1560354e+02   3.1665942e+02   3.1675433e+02   3.2488642e+02   3.2900000e+02   3.4000000e+02   3.4000000e+02   3.4900000e+02   3.4496616e+02   3.4889002e+02   3.4889034e+02   3.5295650e+02   3.5700000e+02   3.6800000e+02   3.6800000e+02   3.8200000e+02   3.8200000e+02   3.8300000e+02   3.8300000e+02   3.7500000e+02   3.7500000e+02   3.6900000e+02   3.6900000e+02
3.7201739e+01   3.7330777e+01   4.1574996e+01   4.6000000e+01   4.8000000e+01   4.8000000e+01   4.8000000e+01   4.3998562e+01   4.0880021e+01   4.0806603e+01   4.0810239e+01   4.0880079e+01   4.8946438e+01   5.3000000e+01   6.3000000e+01   6.3000000e+01   7.1000000e+01   7.1000000e+01   7.4000000e+01   7.0000137e+01   7.0989084e+01   7.5000000e+01   7.7000000e+01   7.7000000e+01   7.2001055e+01   7.1197071e+01   7.0529199e+01   6.9957873e+01   7.0464067e+01   7.0037272e+01   7.1671449e+01   7.1362358e+01   7.4106872e+01   7.3902669e+01   7.8747845e+01   7.8640513e+01   8.5579250e+01   8.5562867e+01   1.0159015e+02   1.0166035e+02   1.2077290e+02   1.2092753e+02   1.3412392e+02   1.3436205e+02   1.4564161e+02   1.4596210e+02   1.5532189e+02   1.5571811e+02   1.6514564e+02   1.6559576e+02   1.8005451e+02   1.8050042e+02   1.9290368e+02   1.9322674e+02   1.9844238e+02   1.9858227e+02   2.0168003e+02   2.0176735e+02   2.1188548e+02   2.1600000e+02   2.2300000e+02   2.2300000e+02   2.2400000e+02   2.2400000e+02   2.2300000e+02   2.2300000e+02   2.1900000e+02   2.1900000e+02   2.0900000e+02   2.0900000e+02   1.9496748e+02   1.9485194e+02   1.9176505e+02   1.9172569e+02   1.9273385e+02   1.9278331e+02   1.9686497e+02   1.9696138e+02   2.0700000e+02   2.0700000e+02   2.1400000e+02   2.1400000e+02   2.2000000e+02   2.2000000e+02   2.2000000e+02   2.2000000e+02   2.1100000e+02   2.1100000e+02   2.0300000e+02   2.0300000e+02   2.0900000e+02   2.0900000e+02   2.2000000e+02   2.1605015e+02   2.3700000e+02   2.3700000e+02   2.5000000e+02   2.5000000e+02   2.4300000e+02   2.4300000e+02   2.3103073e+02   2.3101568e+02   2.3603688e+02   2.4000000e+02   2.4800000e+02   2.4800000e+02   2.5200000e+02   2.5200000e+02   2.5700000e+02   2.5700000e+02   2.6200000e+02   2.6200000e+02   2.6300000e+02   2.6300000e+02   2.6400000e+02   2.6400000e+02   2.6500000e+02   2.6500000e+02   2.6800000e+02   2.6403032e+02   2.6801839e+02   2.7200000e+02   2.7000000e+02   2.7000000e+02   2.6800000e+02   2.6406375e+02   2.6705413e+02   2.6706015e+02   2.7200000e+02   2.7200000e+02   2.7100000e+02   2.7100000e+02   2.7000000e+02   2.6602654e+02   2.7301238e+02   2.7700000e+02   2.9200000e+02   2.9200000e+02   3.0900000e+02   3.0900000e+02   3.2200000e+02   3.2200000e+02   3.2900000e+02   3.2503062e+02   3.3002207e+02   3.3004190e+02   3.4500000e+02   3.4500000e+02   3.5900000e+02   3.5900000e+02   3.6700000e+02   3.6700000e+02   3.6900000e+02   3.6502642e+02   3.6000752e+02   3.5999548e+02   3.4694188e+02   3.4682367e+02   3.3270686e+02   3.3261251e+02   3.2254325e+02   3.2249799e+02   3.1647754e+02   3.1648533e+02   3.1552621e+02   3.1560443e+02   3.1972152e+02   3.1987454e+02   3.3500000e+02   3.3500000e+02   3.4400000e+02   3.3993100e+02   3.4482840e+02   3.4480629e+02   3.5085594e+02   3.5095132e+02   3.6700000e+02   3.6700000e+02   3.8200000e+02   3.8200000e+02   3.8100000e+02   3.8100000e+02   3.7700000e+02   3.7700000e+02   3.7500000e+02   3.7500000e+02
3.7138564e+01   3.7259637e+01   4.1464066e+01   4.1718903e+01   4.3868790e+01   4.3959588e+01   4.4001856e+01   4.3980052e+01   4.0888912e+01   4.0841570e+01   4.0892977e+01   4.5000000e+01   5.3000000e+01   5.3000000e+01   6.3000000e+01   6.3000000e+01   7.1000000e+01   7.1000000e+01   7.4000000e+01   7.0066779e+01   7.5000000e+01   7.5000000e+01   7.7000000e+01   7.7000000e+01   7.1990373e+01   7.1150959e+01   7.0449297e+01   6.9848953e+01   7.0331388e+01   6.9885340e+01   7.1503876e+01   7.1181964e+01   7.3915852e+01   7.3702750e+01   7.8540342e+01   7.8426784e+01   8.5360306e+01   8.5339670e+01   1.0136390e+02   1.0143209e+02   1.2054376e+02   1.2069865e+02   1.3389649e+02   1.3413731e+02   1.4542088e+02   1.4574685e+02   1.5511371e+02   1.5551885e+02   1.6495731e+02   1.6541965e+02   1.7989047e+02   1.8034505e+02   1.9275069e+02   1.9307465e+02   1.9830803e+02   1.9847093e+02   2.0159383e+02   2.0171060e+02   2.1185672e+02   2.1600000e+02   2.2300000e+02   2.2300000e+02   2.2400000e+02   2.2400000e+02   2.2300000e+02   2.2300000e+02   2.1900000e+02   2.1900000e+02   2.0900000e+02   2.0900000e+02   1.9900000e+02   1.9490422e+02   1.9180315e+02   1.9175777e+02   1.9276505e+02   1.9281906e+02   1.9691331e+02   2.0100000e+02   2.0700000e+02   2.0700000e+02   2.1400000e+02   2.1400000e+02   2.2000000e+02   2.2000000e+02   2.2000000e+02   2.2000000e+02   2.1100000e+02   2.1100000e+02   2.0300000e+02   2.0300000e+02   2.0900000e+02   2.0900000e+02   2.1603873e+02   2.1605373e+02   2.3700000e+02   2.3700000e+02   2.5000000e+02   2.5000000e+02   2.4300000e+02   2.4300000e+02   2.3500000e+02   2.3103050e+02   2.3603623e+02   2.4000000e+02   2.4800000e+02   2.4800000e+02   2.5200000e+02   2.5200000e+02   2.5700000e+02   2.5700000e+02   2.6200000e+02   2.6200000e+02   2.6300000e+02   2.6300000e+02   2.6400000e+02   2.6400000e+02   2.6500000e+02   2.6500000e+02   2.6800000e+02   2.6401693e+02   2.6799687e+02   2.6802301e+02   2.6604133e+02   2.6604862e+02   2.6405188e+02   2.6405888e+02   2.7100000e+02   2.7100000e+02   2.7200000e+02   2.7200000e+02   2.7100000e+02   2.7100000e+02   2.7000000e+02   2.6598794e+02   2.7294028e+02   2.7294932e+02   2.8798048e+02   2.9200000e+02   3.0900000e+02   3.0900000e+02   3.2200000e+02   3.2200000e+02   3.2900000e+02   3.2900000e+02   3.3003799e+02   3.3004185e+02   3.4500000e+02   3.4500000e+02   3.5900000e+02   3.5900000e+02   3.6700000e+02   3.6700000e+02   3.6900000e+02   3.6900000e+02   3.6002098e+02   3.5998944e+02   3.4692056e+02   3.4682520e+02   3.3271577e+02   3.3261060e+02   3.2252095e+02   3.2245263e+02   3.1640961e+02   3.1639567e+02   3.1541453e+02   3.1546935e+02   3.1956198e+02   3.1969299e+02   3.3086069e+02   3.3500000e+02   3.4400000e+02   3.3987060e+02   3.4474718e+02   3.4471429e+02   3.5076114e+02   3.5087546e+02   3.6700000e+02   3.6700000e+02   3.8200000e+02   3.8200000e+02   3.8100000e+02   3.8100000e+02   3.7700000e+02   3.7700000e+02   3.7500000e+02   3.7500000e+02
2.9045008e+01   2.9156299e+01   3.5338040e+01   3.5557405e+01   3.7752370e+01   3.7903589e+01   3.8010887e+01   4.2000000e+01   3.5912043e+01   3.5842589e+01   4.0896209e+01   4.5000000e+01   5.6000000e+01   5.6000000e+01   6.5000000e+01   6.5000000e+01   6.8000000e+01   6.8000000e+01   7.0000000e+01   6.6092598e+01   7.1000000e+01   7.1000000e+01   7.3000000e+01   6.8552814e+01   6.7763660e+01   6.6994044e+01   6.5303343e+01   6.4696643e+01   6.5168038e+01   6.4710814e+01   6.7319107e+01   6.6988237e+01   6.9714559e+01   6.9494912e+01   7.3326907e+01   7.3208603e+01   8.1138208e+01   8.1114453e+01   9.5136315e+01   9.5203113e+01   1.1431426e+02   1.1446960e+02   1.2866920e+02   1.2891300e+02   1.4020126e+02   1.4053407e+02   1.5191092e+02   1.5233030e+02   1.6078908e+02   1.6127979e+02   1.7078793e+02   1.7128637e+02   1.8072982e+02   1.8106816e+02   1.8930404e+02   1.8946398e+02   1.9658088e+02   1.9668876e+02   2.0881274e+02   2.0895372e+02   2.2300000e+02   2.2300000e+02   2.2400000e+02   2.2400000e+02   2.2400000e+02   2.2400000e+02   2.1900000e+02   2.1900000e+02   2.1000000e+02   2.1000000e+02   2.0000000e+02   1.9594273e+02   1.9084887e+02   1.9080604e+02   1.9381741e+02   1.9387555e+02   1.9996005e+02   2.0400000e+02   2.1200000e+02   2.1200000e+02   2.2000000e+02   2.2000000e+02   2.2500000e+02   2.2500000e+02   2.2400000e+02   2.2400000e+02   2.1400000e+02   2.1400000e+02   2.0600000e+02   2.0600000e+02   2.1200000e+02   2.0801691e+02   2.2102772e+02   2.2500000e+02   2.4300000e+02   2.4300000e+02   2.5500000e+02   2.5500000e+02   2.4900000e+02   2.4900000e+02   2.3800000e+02   2.3404167e+02   2.3504398e+02   2.3900000e+02   2.4400000e+02   2.4400000e+02   2.4500000e+02   2.4500000e+02   2.5200000e+02   2.5200000e+02   2.5600000e+02   2.5600000e+02   2.5400000e+02   2.5400000e+02   2.5306636e+02   2.5305815e+02   2.5906538e+02   2.6300000e+02   2.6304759e+02   2.6300723e+02   2.6399921e+02   2.6402163e+02   2.6203584e+02   2.6204207e+02   2.6604936e+02   2.7000000e+02   2.7600000e+02   2.7600000e+02   2.7400000e+02   2.7400000e+02   2.7100000e+02   2.7100000e+02   2.7100000e+02   2.6693087e+02   2.7086278e+02   2.7085612e+02   2.8189523e+02   2.8197241e+02   3.0400000e+02   3.0400000e+02   3.1800000e+02   3.1800000e+02   3.2600000e+02   3.2600000e+02   3.3100000e+02   3.2705138e+02   3.3505367e+02   3.3900000e+02   3.5300000e+02   3.5300000e+02   3.6900000e+02   3.6900000e+02   3.7700000e+02   3.7700000e+02   3.7500000e+02   3.7500000e+02   3.5697753e+02   3.5689858e+02   3.4277981e+02   3.4265498e+02   3.2954034e+02   3.2944517e+02   3.1937539e+02   3.1933495e+02   3.1632679e+02   3.1635301e+02   3.2241473e+02   3.2251205e+02   3.2964426e+02   3.2980937e+02   3.4100000e+02   3.3675380e+02   3.4263135e+02   3.4260520e+02   3.4965727e+02   3.4977340e+02   3.6192660e+02   3.6600000e+02   3.7700000e+02   3.7700000e+02   3.7800000e+02   3.7800000e+02   3.8100000e+02   3.8100000e+02   3.8000000e+02   3.8000000e+02
