5.4861140e+01   5.7700049e+01   5.7560805e+01   6.2444730e+01   6.2352093e+01   6.7283801e+01   6.7240164e+01   7.2221567e+01   7.2228130e+01   7.7259889e+01   7.7316888e+01   8.5399215e+01   8.5506355e+01   9.6637668e+01   9.6791979e+01   1.0597040e+02   1.0617073e+02   1.1539181e+02   1.1563209e+02   1.2788974e+02   1.2816271e+02   1.3644855e+02   1.3674431e+02   1.4000000e+02   1.4000000e+02   1.4300000e+02   1.4300000e+02   1.4700000e+02   1.4700000e+02   1.5300000e+02   1.5300000e+02   1.5800000e+02   1.5800000e+02   1.6400000e+02   1.6400000e+02   1.7400000e+02   1.7400000e+02   1.8400000e+02   1.8400000e+02   1.8600000e+02   1.8600000e+02   1.8100000e+02   1.8100000e+02   1.8200000e+02   1.8200000e+02   1.9600000e+02   1.9600000e+02   2.0600000e+02   2.0600000e+02   2.1200000e+02   2.1200000e+02   2.1900000e+02   2.1900000e+02   2.1800000e+02   2.1800000e+02   2.1500000e+02   2.1500000e+02   2.1400000e+02   2.1400000e+02   2.1500000e+02   2.1500000e+02   2.1400000e+02   2.1400000e+02   2.1300000e+02   2.1300000e+02   2.1200000e+02   2.1200000e+02   2.1300000e+02   2.1300000e+02   2.1900000e+02   2.1900000e+02   2.3000000e+02   2.3000000e+02   2.4100000e+02   2.4100000e+02   2.4800000e+02   2.4800000e+02   2.5200000e+02   2.5200000e+02   2.4900000e+02   2.4900000e+02   2.3900000e+02   2.3900000e+02   2.3300000e+02   2.3300000e+02   2.3200000e+02   2.3200000e+02   2.3500000e+02   2.3500000e+02   2.4200000e+02   2.4200000e+02   2.4800000e+02   2.4800000e+02   2.5200000e+02   2.5200000e+02   2.5800000e+02   2.5800000e+02   2.6400000e+02   2.6400000e+02   2.7300000e+02   2.7300000e+02   2.8100000e+02   2.8100000e+02   2.8700000e+02   2.8700000e+02   2.9100000e+02   2.9100000e+02   2.9100000e+02   2.9100000e+02   2.8500000e+02   2.8500000e+02   2.8100000e+02   2.8100000e+02   2.8900000e+02   2.8900000e+02   3.0900000e+02   3.0900000e+02   3.3500000e+02   3.3500000e+02   3.5800000e+02   3.5800000e+02   3.6400000e+02   3.6400000e+02   3.6500000e+02   3.6500000e+02   3.7600000e+02   3.7600000e+02   3.9200000e+02   3.9200000e+02   3.9800000e+02   3.9800000e+02   3.9300000e+02   3.9300000e+02   3.8300000e+02   3.8300000e+02   3.6400000e+02   3.6400000e+02   3.4100000e+02   3.4100000e+02   3.2700000e+02   3.2700000e+02   3.2600000e+02   3.2600000e+02   3.3000000e+02   3.3000000e+02   3.3200000e+02   3.3200000e+02   3.3500000e+02   3.3500000e+02   3.3900000e+02   3.3900000e+02   3.4600000e+02   3.4600000e+02   3.5200000e+02   3.5200000e+02   3.4900000e+02   3.4900000e+02   3.4200000e+02   3.4200000e+02   3.3900000e+02   3.3900000e+02   3.4800000e+02   3.4800000e+02   3.6200000e+02   3.6200000e+02   3.7100000e+02   3.7100000e+02   3.7700000e+02   3.7700000e+02   3.8100000e+02   3.8100000e+02   3.8400000e+02   3.8400000e+02   3.8600000e+02   3.8600000e+02   3.9000000e+02   3.9000000e+02   3.9600000e+02   3.9600000e+02   4.0500000e+02   4.0500000e+02   4.1400000e+02   4.1400000e+02   4.1600000e+02   4.1600000e+02   4.2200000e+02
5.3609424e+01   5.7456296e+01   5.7324135e+01   6.1213728e+01   6.1126262e+01   6.6062161e+01   6.6022118e+01   7.0006430e+01   7.0015292e+01   7.5049397e+01   7.5108361e+01   8.1191944e+01   8.1300324e+01   9.0432380e+01   9.0587755e+01   9.8765244e+01   9.8964930e+01   1.1218450e+02   1.1242249e+02   1.2567684e+02   1.2594565e+02   1.3322660e+02   1.3351684e+02   1.3681357e+02   1.3700000e+02   1.3900000e+02   1.3900000e+02   1.4100000e+02   1.4100000e+02   1.4400000e+02   1.4400000e+02   1.4600000e+02   1.4600000e+02   1.5000000e+02   1.5000000e+02   1.5700000e+02   1.5700000e+02   1.6200000e+02   1.6200000e+02   1.6200000e+02   1.6200000e+02   1.7500000e+02   1.7500000e+02   1.9000000e+02   1.9000000e+02   2.0000000e+02   2.0000000e+02   2.0900000e+02   2.0900000e+02   2.1800000e+02   2.1800000e+02   2.2500000e+02   2.2500000e+02   2.2800000e+02   2.2800000e+02   2.2300000e+02   2.2300000e+02   2.1800000e+02   2.1800000e+02   2.1700000e+02   2.1700000e+02   2.1600000e+02   2.1600000e+02   2.1400000e+02   2.1400000e+02   2.1400000e+02   2.1400000e+02   2.1500000e+02   2.1500000e+02   2.1900000e+02   2.1900000e+02   2.2800000e+02   2.2800000e+02   2.4100000e+02   2.4100000e+02   2.4900000e+02   2.4900000e+02   2.5600000e+02   2.5600000e+02   2.5300000e+02   2.5300000e+02   2.4000000e+02   2.4000000e+02   2.3600000e+02   2.3600000e+02   2.3600000e+02   2.3600000e+02   2.3500000e+02   2.3500000e+02   2.4100000e+02   2.4100000e+02   2.4500000e+02   2.4500000e+02   2.5000000e+02   2.5000000e+02   2.5500000e+02   2.5500000e+02   2.6200000e+02   2.6200000e+02   2.7200000e+02   2.7200000e+02   2.7700000e+02   2.7700000e+02   2.8100000e+02   2.8100000e+02   2.8600000e+02   2.8600000e+02   2.8600000e+02   2.8600000e+02   2.8500000e+02   2.8500000e+02   2.8000000e+02   2.8000000e+02   2.8300000e+02   2.8300000e+02   3.0100000e+02   3.0100000e+02   3.2400000e+02   3.2400000e+02   3.5300000e+02   3.5300000e+02   3.6700000e+02   3.6700000e+02   3.7000000e+02   3.7000000e+02   3.7400000e+02   3.7400000e+02   3.8800000e+02   3.8800000e+02   3.9900000e+02   3.9900000e+02   3.9200000e+02   3.9200000e+02   3.8700000e+02   3.8700000e+02   3.7900000e+02   3.7900000e+02   3.5800000e+02   3.5800000e+02   3.3600000e+02   3.3600000e+02   3.2600000e+02   3.2600000e+02   3.2800000e+02   3.2800000e+02   3.3100000e+02   3.3100000e+02   3.3500000e+02   3.3500000e+02   3.3900000e+02   3.3900000e+02   3.4200000e+02   3.4200000e+02   3.4300000e+02   3.4300000e+02   3.4500000e+02   3.4500000e+02   3.4900000e+02   3.4900000e+02   3.4300000e+02   3.4300000e+02   3.4100000e+02   3.4100000e+02   3.5600000e+02   3.5600000e+02   3.6700000e+02   3.6700000e+02   3.7200000e+02   3.7200000e+02   3.7500000e+02   3.7500000e+02   3.7700000e+02   3.7700000e+02   3.8100000e+02   3.8100000e+02   3.8800000e+02   3.8800000e+02   3.9200000e+02   3.9200000e+02   4.0000000e+02   4.0000000e+02   4.1000000e+02   4.1000000e+02   4.1400000e+02   4.1400000e+02   4.1600000e+02
5.3366644e+01   5.7220173e+01   5.7093731e+01   6.0988349e+01   6.0905040e+01   6.5844717e+01   6.5807561e+01   6.9794563e+01   6.9805938e+01   7.4842130e+01   7.4903077e+01   8.0988492e+01   8.1098158e+01   9.0231824e+01   9.0388605e+01   9.8567272e+01   9.8766711e+01   1.1198626e+02   1.1222357e+02   1.2547664e+02   1.2574354e+02   1.3302194e+02   1.3330930e+02   1.3660303e+02   1.3690036e+02   1.3900000e+02   1.3900000e+02   1.4100000e+02   1.4100000e+02   1.4400000e+02   1.4400000e+02   1.4600000e+02   1.4600000e+02   1.5000000e+02   1.5000000e+02   1.5700000e+02   1.5700000e+02   1.6200000e+02   1.6200000e+02   1.6200000e+02   1.6200000e+02   1.7500000e+02   1.7500000e+02   1.9000000e+02   1.9000000e+02   2.0000000e+02   2.0000000e+02   2.0900000e+02   2.0900000e+02   2.1800000e+02   2.1800000e+02   2.2500000e+02   2.2500000e+02   2.2800000e+02   2.2800000e+02   2.2300000e+02   2.2300000e+02   2.1800000e+02   2.1800000e+02   2.1700000e+02   2.1700000e+02   2.1600000e+02   2.1600000e+02   2.1400000e+02   2.1400000e+02   2.1400000e+02   2.1400000e+02   2.1500000e+02   2.1500000e+02   2.1900000e+02   2.1900000e+02   2.2800000e+02   2.2800000e+02   2.4100000e+02   2.4100000e+02   2.4900000e+02   2.4900000e+02   2.5600000e+02   2.5600000e+02   2.5300000e+02   2.5300000e+02   2.4000000e+02   2.4000000e+02   2.3600000e+02   2.3600000e+02   2.3600000e+02   2.3600000e+02   2.3500000e+02   2.3500000e+02   2.4100000e+02   2.4100000e+02   2.4500000e+02   2.4500000e+02   2.5000000e+02   2.5000000e+02   2.5500000e+02   2.5500000e+02   2.6200000e+02   2.6200000e+02   2.7200000e+02   2.7200000e+02   2.7700000e+02   2.7700000e+02   2.8100000e+02   2.8100000e+02   2.8600000e+02   2.8600000e+02   2.8600000e+02   2.8600000e+02   2.8500000e+02   2.8500000e+02   2.8000000e+02   2.8000000e+02   2.8300000e+02   2.8300000e+02   3.0100000e+02   3.0100000e+02   3.2400000e+02   3.2400000e+02   3.5300000e+02   3.5300000e+02   3.6700000e+02   3.6700000e+02   3.7000000e+02   3.7000000e+02   3.7400000e+02   3.7400000e+02   3.8800000e+02   3.8800000e+02   3.9900000e+02   3.9900000e+02   3.9200000e+02   3.9200000e+02   3.8700000e+02   3.8700000e+02   3.7900000e+02   3.7900000e+02   3.5800000e+02   3.5800000e+02   3.3600000e+02   3.3600000e+02   3.2600000e+02   3.2600000e+02   3.2800000e+02   3.2800000e+02   3.3100000e+02   3.3100000e+02   3.3500000e+02   3.3500000e+02   3.3900000e+02   3.3900000e+02   3.4200000e+02   3.4200000e+02   3.4300000e+02   3.4300000e+02   3.4500000e+02   3.4500000e+02   3.4900000e+02   3.4900000e+02   3.4300000e+02   3.4300000e+02   3.4100000e+02   3.4100000e+02   3.5600000e+02   3.5600000e+02   3.6700000e+02   3.6700000e+02   3.7200000e+02   3.7200000e+02   3.7500000e+02   3.7500000e+02   3.7700000e+02   3.7700000e+02   3.8100000e+02   3.8100000e+02   3.8800000e+02   3.8800000e+02   3.9200000e+02   3.9200000e+02   4.0000000e+02   4.0000000e+02   4.1000000e+02   4.1000000e+02   4.1400000e+02   4.1400000e+02   4.1600000e+02
5.1133372e+01   5.4992431e+01   5.4870685e+01   5.8769401e+01   5.8689554e+01   6.2632226e+01   6.2597656e+01   6.8586941e+01   6.8600372e+01   7.2638640e+01   7.2701393e+01   7.8788838e+01   7.8900675e+01   8.6036294e+01   8.6195111e+01   9.4376034e+01   9.4577470e+01   1.0779777e+02   1.0803618e+02   1.2128976e+02   1.2155676e+02   1.2983490e+02   1.3012171e+02   1.3541482e+02   1.3571174e+02   1.3900000e+02   1.3900000e+02   1.4000000e+02   1.4000000e+02   1.3900000e+02   1.3900000e+02   1.3600000e+02   1.3600000e+02   1.3600000e+02   1.3600000e+02   1.3800000e+02   1.3800000e+02   1.4000000e+02   1.4000000e+02   1.4400000e+02   1.4400000e+02   1.6100000e+02   1.6100000e+02   1.8300000e+02   1.8300000e+02   1.9500000e+02   1.9500000e+02   2.0500000e+02   2.0500000e+02   2.1500000e+02   2.1500000e+02   2.2700000e+02   2.2700000e+02   2.3700000e+02   2.3700000e+02   2.3400000e+02   2.3400000e+02   2.2300000e+02   2.2300000e+02   2.2000000e+02   2.2000000e+02   2.1800000e+02   2.1800000e+02   2.1600000e+02   2.1600000e+02   2.1600000e+02   2.1600000e+02   2.1800000e+02   2.1800000e+02   2.2000000e+02   2.2000000e+02   2.2100000e+02   2.2100000e+02   2.2500000e+02   2.2500000e+02   2.3500000e+02   2.3500000e+02   2.4400000e+02   2.4400000e+02   2.4600000e+02   2.4600000e+02   2.3700000e+02   2.3700000e+02   2.3500000e+02   2.3500000e+02   2.3800000e+02   2.3800000e+02   2.3700000e+02   2.3700000e+02   2.4200000e+02   2.4200000e+02   2.4900000e+02   2.4900000e+02   2.5500000e+02   2.5500000e+02   2.5900000e+02   2.5900000e+02   2.6400000e+02   2.6400000e+02   2.6900000e+02   2.6900000e+02   2.7100000e+02   2.7100000e+02   2.7700000e+02   2.7700000e+02   2.8200000e+02   2.8200000e+02   2.8100000e+02   2.8100000e+02   2.8100000e+02   2.8100000e+02   2.7900000e+02   2.7900000e+02   2.8100000e+02   2.8100000e+02   2.9400000e+02   2.9400000e+02   3.1200000e+02   3.1200000e+02   3.3800000e+02   3.3800000e+02   3.6100000e+02   3.6100000e+02   3.6900000e+02   3.6900000e+02   3.7300000e+02   3.7300000e+02   3.8100000e+02   3.8100000e+02   3.9400000e+02   3.9400000e+02   4.0000000e+02   4.0000000e+02   3.9900000e+02   3.9900000e+02   3.9100000e+02   3.9100000e+02   3.7500000e+02   3.7500000e+02   3.5200000e+02   3.5200000e+02   3.3300000e+02   3.3300000e+02   3.2800000e+02   3.2800000e+02   3.3100000e+02   3.3100000e+02   3.3300000e+02   3.3300000e+02   3.3600000e+02   3.3600000e+02   3.3800000e+02   3.3800000e+02   3.3800000e+02   3.3800000e+02   3.4300000e+02   3.4300000e+02   3.5300000e+02   3.5300000e+02   3.4700000e+02   3.4700000e+02   3.3800000e+02   3.3800000e+02   3.4800000e+02   3.4800000e+02   3.6100000e+02   3.6100000e+02   3.6600000e+02   3.6600000e+02   3.6900000e+02   3.6900000e+02   3.7200000e+02   3.7200000e+02   3.7900000e+02   3.7900000e+02   3.8400000e+02   3.8400000e+02   3.8700000e+02   3.8700000e+02   3.9400000e+02   3.9400000e+02   4.0200000e+02   4.0200000e+02   4.0600000e+02   4.0600000e+02   4.1100000e+02
5.0910725e+01   5.4773675e+01   5.4655690e+01   5.8557477e+01   5.8480288e+01   6.2425190e+01   6.2392748e+01   6.8383890e+01   6.8399180e+01   7.2439201e+01   7.2503829e+01   7.8593313e+01   7.8707776e+01   8.5846303e+01   8.6007884e+01   9.4191825e+01   9.4396681e+01   1.0761962e+02   1.0786074e+02   1.2111676e+02   1.2138577e+02   1.2966569e+02   1.2995407e+02   1.3524872e+02   1.3554733e+02   1.3884772e+02   1.3900000e+02   1.4000000e+02   1.4000000e+02   1.3900000e+02   1.3900000e+02   1.3600000e+02   1.3600000e+02   1.3600000e+02   1.3600000e+02   1.3800000e+02   1.3800000e+02   1.4000000e+02   1.4000000e+02   1.4400000e+02   1.4400000e+02   1.6100000e+02   1.6100000e+02   1.8300000e+02   1.8300000e+02   1.9500000e+02   1.9500000e+02   2.0500000e+02   2.0500000e+02   2.1500000e+02   2.1500000e+02   2.2700000e+02   2.2700000e+02   2.3700000e+02   2.3700000e+02   2.3400000e+02   2.3400000e+02   2.2300000e+02   2.2300000e+02   2.2000000e+02   2.2000000e+02   2.1800000e+02   2.1800000e+02   2.1600000e+02   2.1600000e+02   2.1600000e+02   2.1600000e+02   2.1800000e+02   2.1800000e+02   2.2000000e+02   2.2000000e+02   2.2100000e+02   2.2100000e+02   2.2500000e+02   2.2500000e+02   2.3500000e+02   2.3500000e+02   2.4400000e+02   2.4400000e+02   2.4600000e+02   2.4600000e+02   2.3700000e+02   2.3700000e+02   2.3500000e+02   2.3500000e+02   2.3800000e+02   2.3800000e+02   2.3700000e+02   2.3700000e+02   2.4200000e+02   2.4200000e+02   2.4900000e+02   2.4900000e+02   2.5500000e+02   2.5500000e+02   2.5900000e+02   2.5900000e+02   2.6400000e+02   2.6400000e+02   2.6900000e+02   2.6900000e+02   2.7100000e+02   2.7100000e+02   2.7700000e+02   2.7700000e+02   2.8200000e+02   2.8200000e+02   2.8100000e+02   2.8100000e+02   2.8100000e+02   2.8100000e+02   2.7900000e+02   2.7900000e+02   2.8100000e+02   2.8100000e+02   2.9400000e+02   2.9400000e+02   3.1200000e+02   3.1200000e+02   3.3800000e+02   3.3800000e+02   3.6100000e+02   3.6100000e+02   3.6900000e+02   3.6900000e+02   3.7300000e+02   3.7300000e+02   3.8100000e+02   3.8100000e+02   3.9400000e+02   3.9400000e+02   4.0000000e+02   4.0000000e+02   3.9900000e+02   3.9900000e+02   3.9100000e+02   3.9100000e+02   3.7500000e+02   3.7500000e+02   3.5200000e+02   3.5200000e+02   3.3300000e+02   3.3300000e+02   3.2800000e+02   3.2800000e+02   3.3100000e+02   3.3100000e+02   3.3300000e+02   3.3300000e+02   3.3600000e+02   3.3600000e+02   3.3800000e+02   3.3800000e+02   3.3800000e+02   3.3800000e+02   3.4300000e+02   3.4300000e+02   3.5300000e+02   3.5300000e+02   3.4700000e+02   3.4700000e+02   3.3800000e+02   3.3800000e+02   3.4800000e+02   3.4800000e+02   3.6100000e+02   3.6100000e+02   3.6600000e+02   3.6600000e+02   3.6900000e+02   3.6900000e+02   3.7200000e+02   3.7200000e+02   3.7900000e+02   3.7900000e+02   3.8400000e+02   3.8400000e+02   3.8700000e+02   3.8700000e+02   3.9400000e+02   3.9400000e+02   4.0200000e+02   4.0200000e+02   4.0600000e+02   4.0600000e+02   4.1100000e+02
5.0699065e+01   5.3564836e+01   5.3449108e+01   5.7353192e+01   5.7277900e+01   6.2224360e+01   6.2193405e+01   6.7185791e+01   6.7202444e+01   7.1243779e+01   7.1310384e+01   7.5402395e+01   7.5519795e+01   8.1661754e+01   8.1827281e+01   9.1015617e+01   9.1225001e+01   1.0345301e+02   1.0369780e+02   1.1595802e+02   1.1623089e+02   1.2551446e+02   1.2580630e+02   1.3510444e+02   1.3540676e+02   1.4071118e+02   1.4100000e+02   1.3900000e+02   1.3900000e+02   1.3200000e+02   1.3200000e+02   1.2600000e+02   1.2600000e+02   1.2200000e+02   1.2200000e+02   1.2200000e+02   1.2200000e+02   1.3000000e+02   1.3000000e+02   1.4200000e+02   1.4200000e+02   1.5600000e+02   1.5600000e+02   1.7200000e+02   1.7200000e+02   1.8700000e+02   1.8700000e+02   2.0100000e+02   2.0100000e+02   2.1500000e+02   2.1500000e+02   2.2800000e+02   2.2800000e+02   2.3800000e+02   2.3800000e+02   2.3800000e+02   2.3800000e+02   2.2900000e+02   2.2900000e+02   2.2300000e+02   2.2300000e+02   2.1900000e+02   2.1900000e+02   2.1700000e+02   2.1700000e+02   2.1600000e+02   2.1600000e+02   2.1700000e+02   2.1700000e+02   2.1800000e+02   2.1800000e+02   2.1900000e+02   2.1900000e+02   2.2000000e+02   2.2000000e+02   2.2300000e+02   2.2300000e+02   2.2900000e+02   2.2900000e+02   2.3300000e+02   2.3300000e+02   2.3100000e+02   2.3100000e+02   2.3100000e+02   2.3100000e+02   2.3300000e+02   2.3300000e+02   2.3100000e+02   2.3100000e+02   2.3500000e+02   2.3500000e+02   2.4500000e+02   2.4500000e+02   2.5300000e+02   2.5300000e+02   2.5800000e+02   2.5800000e+02   2.5900000e+02   2.5900000e+02   2.6200000e+02   2.6200000e+02   2.6700000e+02   2.6700000e+02   2.7400000e+02   2.7400000e+02   2.7800000e+02   2.7800000e+02   2.7700000e+02   2.7700000e+02   2.7800000e+02   2.7800000e+02   2.7700000e+02   2.7700000e+02   2.7700000e+02   2.7700000e+02   2.8500000e+02   2.8500000e+02   3.0100000e+02   3.0100000e+02   3.2200000e+02   3.2200000e+02   3.4800000e+02   3.4800000e+02   3.6400000e+02   3.6400000e+02   3.6900000e+02   3.6900000e+02   3.7400000e+02   3.7400000e+02   3.8300000e+02   3.8300000e+02   3.9600000e+02   3.9600000e+02   4.0200000e+02   4.0200000e+02   3.9700000e+02   3.9700000e+02   3.8500000e+02   3.8500000e+02   3.6700000e+02   3.6700000e+02   3.4400000e+02   3.4400000e+02   3.3100000e+02   3.3100000e+02   3.3100000e+02   3.3100000e+02   3.3200000e+02   3.3200000e+02   3.3400000e+02   3.3400000e+02   3.3900000e+02   3.3900000e+02   3.3900000e+02   3.3900000e+02   3.4200000e+02   3.4200000e+02   3.5000000e+02   3.5000000e+02   3.5100000e+02   3.5100000e+02   3.4000000e+02   3.4000000e+02   3.3900000e+02   3.3900000e+02   3.5100000e+02   3.5100000e+02   3.5900000e+02   3.5900000e+02   3.6400000e+02   3.6400000e+02   3.7000000e+02   3.7000000e+02   3.7700000e+02   3.7700000e+02   3.8100000e+02   3.8100000e+02   3.8100000e+02   3.8100000e+02   3.8800000e+02   3.8800000e+02   3.9600000e+02   3.9600000e+02   4.0200000e+02   4.0200000e+02   4.1100000e+02
5.0498544e+01   5.3366016e+01   5.3251784e+01   5.7157026e+01   5.7082964e+01   6.2030247e+01   6.1999790e+01   6.6993057e+01   6.7010539e+01   7.1053030e+01   7.1121309e+01   7.5215813e+01   7.5336391e+01   8.1482663e+01   8.1653530e+01   9.0847379e+01   9.1062665e+01   1.0329734e+02   1.0354779e+02   1.1581394e+02   1.1609252e+02   1.2538144e+02   1.2567855e+02   1.3498189e+02   1.3528954e+02   1.4059967e+02   1.4091054e+02   1.3900000e+02   1.3900000e+02   1.3200000e+02   1.3200000e+02   1.2600000e+02   1.2600000e+02   1.2200000e+02   1.2200000e+02   1.2200000e+02   1.2200000e+02   1.3000000e+02   1.3000000e+02   1.4200000e+02   1.4200000e+02   1.5600000e+02   1.5600000e+02   1.7200000e+02   1.7200000e+02   1.8700000e+02   1.8700000e+02   2.0100000e+02   2.0100000e+02   2.1500000e+02   2.1500000e+02   2.2800000e+02   2.2800000e+02   2.3800000e+02   2.3800000e+02   2.3800000e+02   2.3800000e+02   2.2900000e+02   2.2900000e+02   2.2300000e+02   2.2300000e+02   2.1900000e+02   2.1900000e+02   2.1700000e+02   2.1700000e+02   2.1600000e+02   2.1600000e+02   2.1700000e+02   2.1700000e+02   2.1800000e+02   2.1800000e+02   2.1900000e+02   2.1900000e+02   2.2000000e+02   2.2000000e+02   2.2300000e+02   2.2300000e+02   2.2900000e+02   2.2900000e+02   2.3300000e+02   2.3300000e+02   2.3100000e+02   2.3100000e+02   2.3100000e+02   2.3100000e+02   2.3300000e+02   2.3300000e+02   2.3100000e+02   2.3100000e+02   2.3500000e+02   2.3500000e+02   2.4500000e+02   2.4500000e+02   2.5300000e+02   2.5300000e+02   2.5800000e+02   2.5800000e+02   2.5900000e+02   2.5900000e+02   2.6200000e+02   2.6200000e+02   2.6700000e+02   2.6700000e+02   2.7400000e+02   2.7400000e+02   2.7800000e+02   2.7800000e+02   2.7700000e+02   2.7700000e+02   2.7800000e+02   2.7800000e+02   2.7700000e+02   2.7700000e+02   2.7700000e+02   2.7700000e+02   2.8500000e+02   2.8500000e+02   3.0100000e+02   3.0100000e+02   3.2200000e+02   3.2200000e+02   3.4800000e+02   3.4800000e+02   3.6400000e+02   3.6400000e+02   3.6900000e+02   3.6900000e+02   3.7400000e+02   3.7400000e+02   3.8300000e+02   3.8300000e+02   3.9600000e+02   3.9600000e+02   4.0200000e+02   4.0200000e+02   3.9700000e+02   3.9700000e+02   3.8500000e+02   3.8500000e+02   3.6700000e+02   3.6700000e+02   3.4400000e+02   3.4400000e+02   3.3100000e+02   3.3100000e+02   3.3100000e+02   3.3100000e+02   3.3200000e+02   3.3200000e+02   3.3400000e+02   3.3400000e+02   3.3900000e+02   3.3900000e+02   3.3900000e+02   3.3900000e+02   3.4200000e+02   3.4200000e+02   3.5000000e+02   3.5000000e+02   3.5100000e+02   3.5100000e+02   3.4000000e+02   3.4000000e+02   3.3900000e+02   3.3900000e+02   3.5100000e+02   3.5100000e+02   3.5900000e+02   3.5900000e+02   3.6400000e+02   3.6400000e+02   3.7000000e+02   3.7000000e+02   3.7700000e+02   3.7700000e+02   3.8100000e+02   3.8100000e+02   3.8100000e+02   3.8100000e+02   3.8800000e+02   3.8800000e+02   3.9600000e+02   3.9600000e+02   4.0200000e+02   4.0200000e+02   4.1100000e+02
5.3309368e+01   5.5177490e+01   5.5063992e+01   5.6969727e+01   5.6895768e+01   6.0843275e+01   6.0812981e+01   6.4806081e+01   6.4823740e+01   6.8866878e+01   6.8936582e+01   7.3033480e+01   7.3157822e+01   7.9309161e+01   7.9486282e+01   8.9687472e+01   8.9910323e+01   1.0215295e+02   1.0241112e+02   1.1368497e+02   1.1397098e+02   1.2426692e+02   1.2457085e+02   1.3188089e+02   1.3219535e+02   1.3151262e+02   1.3183120e+02   1.2500000e+02   1.2500000e+02   1.1900000e+02   1.1900000e+02   1.1500000e+02   1.1500000e+02   1.1800000e+02   1.1800000e+02   1.2900000e+02   1.2900000e+02   1.4500000e+02   1.4500000e+02   1.5400000e+02   1.5400000e+02   1.6500000e+02   1.6500000e+02   1.7600000e+02   1.7600000e+02   1.8600000e+02   1.8600000e+02   1.9600000e+02   1.9600000e+02   2.1100000e+02   2.1100000e+02   2.2400000e+02   2.2400000e+02   2.2900000e+02   2.2900000e+02   2.3200000e+02   2.3200000e+02   2.2900000e+02   2.2900000e+02   2.2200000e+02   2.2200000e+02   2.1800000e+02   2.1800000e+02   2.1700000e+02   2.1700000e+02   2.1800000e+02   2.1800000e+02   2.1800000e+02   2.1800000e+02   2.1600000e+02   2.1600000e+02   2.1800000e+02   2.1800000e+02   2.1900000e+02   2.1900000e+02   2.1800000e+02   2.1800000e+02   2.1900000e+02   2.1900000e+02   2.2000000e+02   2.2000000e+02   2.2200000e+02   2.2200000e+02   2.2600000e+02   2.2600000e+02   2.2800000e+02   2.2800000e+02   2.2500000e+02   2.2500000e+02   2.2700000e+02   2.2700000e+02   2.3800000e+02   2.3800000e+02   2.4700000e+02   2.4700000e+02   2.5100000e+02   2.5100000e+02   2.5300000e+02   2.5300000e+02   2.5900000e+02   2.5900000e+02   2.6500000e+02   2.6500000e+02   2.7100000e+02   2.7100000e+02   2.7300000e+02   2.7300000e+02   2.7300000e+02   2.7300000e+02   2.7400000e+02   2.7400000e+02   2.7600000e+02   2.7600000e+02   2.7800000e+02   2.7800000e+02   2.8300000e+02   2.8300000e+02   2.9400000e+02   2.9400000e+02   3.0900000e+02   3.0900000e+02   3.3200000e+02   3.3200000e+02   3.5500000e+02   3.5500000e+02   3.6500000e+02   3.6500000e+02   3.7000000e+02   3.7000000e+02   3.7300000e+02   3.7300000e+02   3.7900000e+02   3.7900000e+02   3.9200000e+02   3.9200000e+02   3.9800000e+02   3.9800000e+02   3.9000000e+02   3.9000000e+02   3.7500000e+02   3.7500000e+02   3.5400000e+02   3.5400000e+02   3.3600000e+02   3.3600000e+02   3.3000000e+02   3.3000000e+02   3.3500000e+02   3.3500000e+02   3.3700000e+02   3.3700000e+02   3.3500000e+02   3.3500000e+02   3.3700000e+02   3.3700000e+02   3.3900000e+02   3.3900000e+02   3.4100000e+02   3.4100000e+02   3.4500000e+02   3.4500000e+02   3.4200000e+02   3.4200000e+02   3.3500000e+02   3.3500000e+02   3.4000000e+02   3.4000000e+02   3.4900000e+02   3.4900000e+02   3.5900000e+02   3.5900000e+02   3.6700000e+02   3.6700000e+02   3.7300000e+02   3.7300000e+02   3.7600000e+02   3.7600000e+02   3.7600000e+02   3.7600000e+02   3.8100000e+02   3.8100000e+02   3.8900000e+02   3.8900000e+02   3.9800000e+02   3.9800000e+02   4.0800000e+02
5.3131867e+01   5.4999938e+01   5.4886115e+01   5.6791706e+01   5.6717368e+01   6.0664236e+01   6.0633082e+01   6.4625376e+01   6.4642166e+01   6.8685537e+01   6.8756096e+01   7.2855177e+01   7.2983561e+01   7.9140844e+01   7.9325651e+01   8.9535714e+01   8.9768377e+01   1.0202058e+02   1.0228917e+02   1.1357171e+02   1.1386671e+02   1.2417123e+02   1.2448336e+02   1.3180144e+02   1.3212397e+02   1.3144954e+02   1.3177698e+02   1.2500000e+02   1.2500000e+02   1.1900000e+02   1.1900000e+02   1.1500000e+02   1.1500000e+02   1.1800000e+02   1.1800000e+02   1.2900000e+02   1.2900000e+02   1.4500000e+02   1.4500000e+02   1.5400000e+02   1.5400000e+02   1.6500000e+02   1.6500000e+02   1.7600000e+02   1.7600000e+02   1.8600000e+02   1.8600000e+02   1.9600000e+02   1.9600000e+02   2.1100000e+02   2.1100000e+02   2.2400000e+02   2.2400000e+02   2.2900000e+02   2.2900000e+02   2.3200000e+02   2.3200000e+02   2.2900000e+02   2.2900000e+02   2.2200000e+02   2.2200000e+02   2.1800000e+02   2.1800000e+02   2.1700000e+02   2.1700000e+02   2.1800000e+02   2.1800000e+02   2.1800000e+02   2.1800000e+02   2.1600000e+02   2.1600000e+02   2.1800000e+02   2.1800000e+02   2.1900000e+02   2.1900000e+02   2.1800000e+02   2.1800000e+02   2.1900000e+02   2.1900000e+02   2.2000000e+02   2.2000000e+02   2.2200000e+02   2.2200000e+02   2.2600000e+02   2.2600000e+02   2.2800000e+02   2.2800000e+02   2.2500000e+02   2.2500000e+02   2.2700000e+02   2.2700000e+02   2.3800000e+02   2.3800000e+02   2.4700000e+02   2.4700000e+02   2.5100000e+02   2.5100000e+02   2.5300000e+02   2.5300000e+02   2.5900000e+02   2.5900000e+02   2.6500000e+02   2.6500000e+02   2.7100000e+02   2.7100000e+02   2.7300000e+02   2.7300000e+02   2.7300000e+02   2.7300000e+02   2.7400000e+02   2.7400000e+02   2.7600000e+02   2.7600000e+02   2.7800000e+02   2.7800000e+02   2.8300000e+02   2.8300000e+02   2.9400000e+02   2.9400000e+02   3.0900000e+02   3.0900000e+02   3.3200000e+02   3.3200000e+02   3.5500000e+02   3.5500000e+02   3.6500000e+02   3.6500000e+02   3.7000000e+02   3.7000000e+02   3.7300000e+02   3.7300000e+02   3.7900000e+02   3.7900000e+02   3.9200000e+02   3.9200000e+02   3.9800000e+02   3.9800000e+02   3.9000000e+02   3.9000000e+02   3.7500000e+02   3.7500000e+02   3.5400000e+02   3.5400000e+02   3.3600000e+02   3.3600000e+02   3.3000000e+02   3.3000000e+02   3.3500000e+02   3.3500000e+02   3.3700000e+02   3.3700000e+02   3.3500000e+02   3.3500000e+02   3.3700000e+02   3.3700000e+02   3.3900000e+02   3.3900000e+02   3.4100000e+02   3.4100000e+02   3.4500000e+02   3.4500000e+02   3.4200000e+02   3.4200000e+02   3.3500000e+02   3.3500000e+02   3.4000000e+02   3.4000000e+02   3.4900000e+02   3.4900000e+02   3.5900000e+02   3.5900000e+02   3.6700000e+02   3.6700000e+02   3.7300000e+02   3.7300000e+02   3.7600000e+02   3.7600000e+02   3.7600000e+02   3.7600000e+02   3.8100000e+02   3.8100000e+02   3.8900000e+02   3.8900000e+02   3.9800000e+02   3.9800000e+02   4.0800000e+02
5.2965891e+01   5.3832943e+01   5.3718575e+01   5.5623321e+01   5.5547797e+01   5.8493647e+01   5.8460922e+01   6.2451589e+01   6.2466928e+01   6.6508728e+01   6.6579626e+01   7.1680526e+01   7.1813207e+01   7.6977496e+01   7.7171678e+01   8.9392712e+01   8.9637172e+01   1.0390152e+02   1.0418172e+02   1.1547565e+02   1.1578049e+02   1.2409495e+02   1.2441648e+02   1.2474364e+02   1.2507510e+02   1.1340985e+02   1.1374705e+02   1.0800000e+02   1.0800000e+02   1.1300000e+02   1.1300000e+02   1.1700000e+02   1.1700000e+02   1.2200000e+02   1.2200000e+02   1.3200000e+02   1.3200000e+02   1.4600000e+02   1.4600000e+02   1.5900000e+02   1.5900000e+02   1.7100000e+02   1.7100000e+02   1.8400000e+02   1.8400000e+02   1.9400000e+02   1.9400000e+02   2.0200000e+02   2.0200000e+02   2.1500000e+02   2.1500000e+02   2.2500000e+02   2.2500000e+02   2.2900000e+02   2.2900000e+02   2.3300000e+02   2.3300000e+02   2.3500000e+02   2.3500000e+02   2.3100000e+02   2.3100000e+02   2.2800000e+02   2.2800000e+02   2.2500000e+02   2.2500000e+02   2.1800000e+02   2.1800000e+02   2.1800000e+02   2.1800000e+02   2.1800000e+02   2.1800000e+02   2.1800000e+02   2.1800000e+02   2.1700000e+02   2.1700000e+02   2.1600000e+02   2.1600000e+02   2.1600000e+02   2.1600000e+02   2.1200000e+02   2.1200000e+02   2.1300000e+02   2.1300000e+02   2.1600000e+02   2.1600000e+02   2.1800000e+02   2.1800000e+02   2.1600000e+02   2.1600000e+02   2.1900000e+02   2.1900000e+02   2.2800000e+02   2.2800000e+02   2.3900000e+02   2.3900000e+02   2.4700000e+02   2.4700000e+02   2.5100000e+02   2.5100000e+02   2.5600000e+02   2.5600000e+02   2.6200000e+02   2.6200000e+02   2.6600000e+02   2.6600000e+02   2.6700000e+02   2.6700000e+02   2.7000000e+02   2.7000000e+02   2.7700000e+02   2.7700000e+02   2.7900000e+02   2.7900000e+02   2.7700000e+02   2.7700000e+02   2.8000000e+02   2.8000000e+02   2.8700000e+02   2.8700000e+02   3.0000000e+02   3.0000000e+02   3.1800000e+02   3.1800000e+02   3.4000000e+02   3.4000000e+02   3.5900000e+02   3.5900000e+02   3.6600000e+02   3.6600000e+02   3.6500000e+02   3.6500000e+02   3.6100000e+02   3.6100000e+02   3.7100000e+02   3.7100000e+02   3.8700000e+02   3.8700000e+02   3.8700000e+02   3.8700000e+02   3.7700000e+02   3.7700000e+02   3.5900000e+02   3.5900000e+02   3.4100000e+02   3.4100000e+02   3.3000000e+02   3.3000000e+02   3.3200000e+02   3.3200000e+02   3.3700000e+02   3.3700000e+02   3.3800000e+02   3.3800000e+02   3.3600000e+02   3.3600000e+02   3.3600000e+02   3.3600000e+02   3.3600000e+02   3.3600000e+02   3.3500000e+02   3.3500000e+02   3.3800000e+02   3.3800000e+02   3.3100000e+02   3.3100000e+02   3.3000000e+02   3.3000000e+02   3.3900000e+02   3.3900000e+02   3.5300000e+02   3.5300000e+02   3.6400000e+02   3.6400000e+02   3.7000000e+02   3.7000000e+02   3.7100000e+02   3.7100000e+02   3.7000000e+02   3.7000000e+02   3.7600000e+02   3.7600000e+02   3.8400000e+02   3.8400000e+02   3.9400000e+02   3.9400000e+02   4.0300000e+02
5.2810897e+01   5.3676872e+01   5.3561402e+01   5.5464877e+01   5.5388062e+01   5.8332038e+01   5.8297461e+01   6.2285604e+01   6.2298255e+01   6.6337735e+01   6.6406783e+01   7.1508924e+01   7.1645957e+01   7.6818477e+01   7.7024221e+01   8.9258858e+01   8.9517592e+01   1.0379606e+02   1.0408997e+02   1.1539671e+02   1.1571366e+02   1.2403856e+02   1.2437048e+02   1.2470752e+02   1.2504866e+02   1.1339313e+02   1.1374054e+02   1.0800000e+02   1.0800000e+02   1.1300000e+02   1.1300000e+02   1.1700000e+02   1.1700000e+02   1.2200000e+02   1.2200000e+02   1.3200000e+02   1.3200000e+02   1.4600000e+02   1.4600000e+02   1.5900000e+02   1.5900000e+02   1.7100000e+02   1.7100000e+02   1.8400000e+02   1.8400000e+02   1.9400000e+02   1.9400000e+02   2.0200000e+02   2.0200000e+02   2.1500000e+02   2.1500000e+02   2.2500000e+02   2.2500000e+02   2.2900000e+02   2.2900000e+02   2.3300000e+02   2.3300000e+02   2.3500000e+02   2.3500000e+02   2.3100000e+02   2.3100000e+02   2.2800000e+02   2.2800000e+02   2.2500000e+02   2.2500000e+02   2.1800000e+02   2.1800000e+02   2.1800000e+02   2.1800000e+02   2.1800000e+02   2.1800000e+02   2.1800000e+02   2.1800000e+02   2.1700000e+02   2.1700000e+02   2.1600000e+02   2.1600000e+02   2.1600000e+02   2.1600000e+02   2.1200000e+02   2.1200000e+02   2.1300000e+02   2.1300000e+02   2.1600000e+02   2.1600000e+02   2.1800000e+02   2.1800000e+02   2.1600000e+02   2.1600000e+02   2.1900000e+02   2.1900000e+02   2.2800000e+02   2.2800000e+02   2.3900000e+02   2.3900000e+02   2.4700000e+02   2.4700000e+02   2.5100000e+02   2.5100000e+02   2.5600000e+02   2.5600000e+02   2.6200000e+02   2.6200000e+02   2.6600000e+02   2.6600000e+02   2.6700000e+02   2.6700000e+02   2.7000000e+02   2.7000000e+02   2.7700000e+02   2.7700000e+02   2.7900000e+02   2.7900000e+02   2.7700000e+02   2.7700000e+02   2.8000000e+02   2.8000000e+02   2.8700000e+02   2.8700000e+02   3.0000000e+02   3.0000000e+02   3.1800000e+02   3.1800000e+02   3.4000000e+02   3.4000000e+02   3.5900000e+02   3.5900000e+02   3.6600000e+02   3.6600000e+02   3.6500000e+02   3.6500000e+02   3.6100000e+02   3.6100000e+02   3.7100000e+02   3.7100000e+02   3.8700000e+02   3.8700000e+02   3.8700000e+02   3.8700000e+02   3.7700000e+02   3.7700000e+02   3.5900000e+02   3.5900000e+02   3.4100000e+02   3.4100000e+02   3.3000000e+02   3.3000000e+02   3.3200000e+02   3.3200000e+02   3.3700000e+02   3.3700000e+02   3.3800000e+02   3.3800000e+02   3.3600000e+02   3.3600000e+02   3.3600000e+02   3.3600000e+02   3.3600000e+02   3.3600000e+02   3.3500000e+02   3.3500000e+02   3.3800000e+02   3.3800000e+02   3.3100000e+02   3.3100000e+02   3.3000000e+02   3.3000000e+02   3.3900000e+02   3.3900000e+02   3.5300000e+02   3.5300000e+02   3.6400000e+02   3.6400000e+02   3.7000000e+02   3.7000000e+02   3.7100000e+02   3.7100000e+02   3.7000000e+02   3.7000000e+02   3.7600000e+02   3.7600000e+02   3.8400000e+02   3.8400000e+02   3.9400000e+02   3.9400000e+02   4.0300000e+02
5.1667381e+01   5.2531744e+01   5.2414941e+01   5.4316950e+01   5.4238553e+01   5.7180752e+01   5.7143547e+01   6.2128721e+01   6.2137527e+01   6.7172859e+01   6.7238578e+01   7.1339546e+01   7.1480825e+01   7.6663308e+01   7.6883498e+01   8.9135173e+01   8.9411126e+01   1.0470604e+02   1.0501540e+02   1.1633626e+02   1.1666634e+02   1.2300333e+02   1.2334585e+02   1.1869342e+02   1.1904458e+02   1.0539885e+02   1.0575643e+02   1.0900000e+02   1.0900000e+02   1.2400000e+02   1.2400000e+02   1.2900000e+02   1.2900000e+02   1.3500000e+02   1.3500000e+02   1.4400000e+02   1.4400000e+02   1.5500000e+02   1.5500000e+02   1.6500000e+02   1.6500000e+02   1.7600000e+02   1.7600000e+02   1.9000000e+02   1.9000000e+02   2.0400000e+02   2.0400000e+02   2.1400000e+02   2.1400000e+02   2.2300000e+02   2.2300000e+02   2.3300000e+02   2.3300000e+02   2.4000000e+02   2.4000000e+02   2.4600000e+02   2.4600000e+02   2.4800000e+02   2.4800000e+02   2.4400000e+02   2.4400000e+02   2.3900000e+02   2.3900000e+02   2.3200000e+02   2.3200000e+02   2.2000000e+02   2.2000000e+02   2.1700000e+02   2.1700000e+02   2.1900000e+02   2.1900000e+02   2.1900000e+02   2.1900000e+02   2.1900000e+02   2.1900000e+02   2.1800000e+02   2.1800000e+02   2.1300000e+02   2.1300000e+02   2.0800000e+02   2.0800000e+02   2.0700000e+02   2.0700000e+02   2.0700000e+02   2.0700000e+02   2.0800000e+02   2.0800000e+02   2.1100000e+02   2.1100000e+02   2.1900000e+02   2.1900000e+02   2.2800000e+02   2.2800000e+02   2.3600000e+02   2.3600000e+02   2.4300000e+02   2.4300000e+02   2.4500000e+02   2.4500000e+02   2.4900000e+02   2.4900000e+02   2.5600000e+02   2.5600000e+02   2.6000000e+02   2.6000000e+02   2.6300000e+02   2.6300000e+02   2.6900000e+02   2.6900000e+02   2.7700000e+02   2.7700000e+02   2.8300000e+02   2.8300000e+02   2.8300000e+02   2.8300000e+02   2.8000000e+02   2.8000000e+02   2.8300000e+02   2.8300000e+02   2.9300000e+02   2.9300000e+02   3.1000000e+02   3.1000000e+02   3.2500000e+02   3.2500000e+02   3.4400000e+02   3.4400000e+02   3.5800000e+02   3.5800000e+02   3.6500000e+02   3.6500000e+02   3.6200000e+02   3.6200000e+02   3.6000000e+02   3.6000000e+02   3.6700000e+02   3.6700000e+02   3.7700000e+02   3.7700000e+02   3.7600000e+02   3.7600000e+02   3.6200000e+02   3.6200000e+02   3.5000000e+02   3.5000000e+02   3.4100000e+02   3.4100000e+02   3.3400000e+02   3.3400000e+02   3.3300000e+02   3.3300000e+02   3.3500000e+02   3.3500000e+02   3.4000000e+02   3.4000000e+02   3.4100000e+02   3.4100000e+02   3.3400000e+02   3.3400000e+02   3.3100000e+02   3.3100000e+02   3.3000000e+02   3.3000000e+02   3.2500000e+02   3.2500000e+02   3.2200000e+02   3.2200000e+02   3.3000000e+02   3.3000000e+02   3.4700000e+02   3.4700000e+02   3.6000000e+02   3.6000000e+02   3.6600000e+02   3.6600000e+02   3.6700000e+02   3.6700000e+02   3.6900000e+02   3.6900000e+02   3.7600000e+02   3.7600000e+02   3.8300000e+02   3.8300000e+02   3.9300000e+02   3.9300000e+02   4.0300000e+02
5.1534902e+01   5.2397643e+01   5.2279239e+01   5.4180132e+01   5.4100384e+01   5.7040565e+01   5.7001153e+01   6.1982844e+01   6.1987223e+01   6.7016515e+01   6.7075712e+01   7.1172621e+01   7.1316458e+01   7.6511619e+01   7.6751249e+01   8.9023979e+01   8.9320204e+01   1.0463357e+02   1.0495982e+02   1.1629588e+02   1.1663969e+02   1.2298967e+02   1.2334401e+02   1.1870176e+02   1.1906292e+02   1.0542672e+02   1.0579378e+02   1.0900000e+02   1.0900000e+02   1.2400000e+02   1.2400000e+02   1.2900000e+02   1.2900000e+02   1.3500000e+02   1.3500000e+02   1.4400000e+02   1.4400000e+02   1.5500000e+02   1.5500000e+02   1.6500000e+02   1.6500000e+02   1.7600000e+02   1.7600000e+02   1.9000000e+02   1.9000000e+02   2.0400000e+02   2.0400000e+02   2.1400000e+02   2.1400000e+02   2.2300000e+02   2.2300000e+02   2.3300000e+02   2.3300000e+02   2.4000000e+02   2.4000000e+02   2.4600000e+02   2.4600000e+02   2.4800000e+02   2.4800000e+02   2.4400000e+02   2.4400000e+02   2.3900000e+02   2.3900000e+02   2.3200000e+02   2.3200000e+02   2.2000000e+02   2.2000000e+02   2.1700000e+02   2.1700000e+02   2.1900000e+02   2.1900000e+02   2.1900000e+02   2.1900000e+02   2.1900000e+02   2.1900000e+02   2.1800000e+02   2.1800000e+02   2.1300000e+02   2.1300000e+02   2.0800000e+02   2.0800000e+02   2.0700000e+02   2.0700000e+02   2.0700000e+02   2.0700000e+02   2.0800000e+02   2.0800000e+02   2.1100000e+02   2.1100000e+02   2.1900000e+02   2.1900000e+02   2.2800000e+02   2.2800000e+02   2.3600000e+02   2.3600000e+02   2.4300000e+02   2.4300000e+02   2.4500000e+02   2.4500000e+02   2.4900000e+02   2.4900000e+02   2.5600000e+02   2.5600000e+02   2.6000000e+02   2.6000000e+02   2.6300000e+02   2.6300000e+02   2.6900000e+02   2.6900000e+02   2.7700000e+02   2.7700000e+02   2.8300000e+02   2.8300000e+02   2.8300000e+02   2.8300000e+02   2.8000000e+02   2.8000000e+02   2.8300000e+02   2.8300000e+02   2.9300000e+02   2.9300000e+02   3.1000000e+02   3.1000000e+02   3.2500000e+02   3.2500000e+02   3.4400000e+02   3.4400000e+02   3.5800000e+02   3.5800000e+02   3.6500000e+02   3.6500000e+02   3.6200000e+02   3.6200000e+02   3.6000000e+02   3.6000000e+02   3.6700000e+02   3.6700000e+02   3.7700000e+02   3.7700000e+02   3.7600000e+02   3.7600000e+02   3.6200000e+02   3.6200000e+02   3.5000000e+02   3.5000000e+02   3.4100000e+02   3.4100000e+02   3.3400000e+02   3.3400000e+02   3.3300000e+02   3.3300000e+02   3.3500000e+02   3.3500000e+02   3.4000000e+02   3.4000000e+02   3.4100000e+02   3.4100000e+02   3.3400000e+02   3.3400000e+02   3.3100000e+02   3.3100000e+02   3.3000000e+02   3.3000000e+02   3.2500000e+02   3.2500000e+02   3.2200000e+02   3.2200000e+02   3.3000000e+02   3.3000000e+02   3.4700000e+02   3.4700000e+02   3.6000000e+02   3.6000000e+02   3.6600000e+02   3.6600000e+02   3.6700000e+02   3.6700000e+02   3.6900000e+02   3.6900000e+02   3.7600000e+02   3.7600000e+02   3.8300000e+02   3.8300000e+02   3.9300000e+02   3.9300000e+02   4.0300000e+02
4.9413307e+01   5.1274472e+01   5.1154882e+01   5.3054647e+01   5.2974039e+01   5.5913288e+01   5.5872066e+01   6.0851046e+01   6.0850891e+01   6.6873193e+01   6.6922292e+01   7.2008653e+01   7.2151803e+01   7.7364265e+01   7.7630946e+01   8.6929691e+01   8.7248445e+01   9.9581375e+01   9.9925144e+01   1.1027705e+02   1.1063554e+02   1.1699868e+02   1.1736511e+02   1.1373380e+02   1.1410405e+02   1.0147666e+02   1.0185185e+02   1.0400000e+02   1.0400000e+02   1.2200000e+02   1.2200000e+02   1.3300000e+02   1.3300000e+02   1.4300000e+02   1.4300000e+02   1.5900000e+02   1.5900000e+02   1.7500000e+02   1.7500000e+02   1.8600000e+02   1.8600000e+02   1.9400000e+02   1.9400000e+02   2.0300000e+02   2.0300000e+02   2.1200000e+02   2.1200000e+02   2.2200000e+02   2.2200000e+02   2.3200000e+02   2.3200000e+02   2.4300000e+02   2.4300000e+02   2.5300000e+02   2.5300000e+02   2.6100000e+02   2.6100000e+02   2.6100000e+02   2.6100000e+02   2.5400000e+02   2.5400000e+02   2.4600000e+02   2.4600000e+02   2.3800000e+02   2.3800000e+02   2.2600000e+02   2.2600000e+02   2.1900000e+02   2.1900000e+02   2.2100000e+02   2.2100000e+02   2.2500000e+02   2.2500000e+02   2.2400000e+02   2.2400000e+02   2.1800000e+02   2.1800000e+02   2.1100000e+02   2.1100000e+02   2.0700000e+02   2.0700000e+02   2.0700000e+02   2.0700000e+02   2.0700000e+02   2.0700000e+02   2.0700000e+02   2.0700000e+02   2.1000000e+02   2.1000000e+02   2.1900000e+02   2.1900000e+02   2.2700000e+02   2.2700000e+02   2.3100000e+02   2.3100000e+02   2.3400000e+02   2.3400000e+02   2.3600000e+02   2.3600000e+02   2.4100000e+02   2.4100000e+02   2.4800000e+02   2.4800000e+02   2.5300000e+02   2.5300000e+02   2.5800000e+02   2.5800000e+02   2.6600000e+02   2.6600000e+02   2.7300000e+02   2.7300000e+02   2.8300000e+02   2.8300000e+02   2.9000000e+02   2.9000000e+02   2.9000000e+02   2.9000000e+02   2.8500000e+02   2.8500000e+02   2.9000000e+02   2.9000000e+02   3.0500000e+02   3.0500000e+02   3.1500000e+02   3.1500000e+02   3.3100000e+02   3.3100000e+02   3.5100000e+02   3.5100000e+02   3.6200000e+02   3.6200000e+02   3.6200000e+02   3.6200000e+02   3.5700000e+02   3.5700000e+02   3.5500000e+02   3.5500000e+02   3.6200000e+02   3.6200000e+02   3.6600000e+02   3.6600000e+02   3.6100000e+02   3.6100000e+02   3.5800000e+02   3.5800000e+02   3.5800000e+02   3.5800000e+02   3.4700000e+02   3.4700000e+02   3.3900000e+02   3.3900000e+02   3.4100000e+02   3.4100000e+02   3.5100000e+02   3.5100000e+02   3.5000000e+02   3.5000000e+02   3.3700000e+02   3.3700000e+02   3.3000000e+02   3.3000000e+02   3.2700000e+02   3.2700000e+02   3.2400000e+02   3.2400000e+02   3.2100000e+02   3.2100000e+02   3.2300000e+02   3.2300000e+02   3.3600000e+02   3.3600000e+02   3.5300000e+02   3.5300000e+02   3.6200000e+02   3.6200000e+02   3.6300000e+02   3.6300000e+02   3.7000000e+02   3.7000000e+02   3.7800000e+02   3.7800000e+02   3.8700000e+02   3.8700000e+02   3.9400000e+02   3.9400000e+02   4.0500000e+02
4.9302297e+01   5.1162088e+01   5.1041638e+01   5.2940885e+01   5.2860095e+01   5.5799261e+01   5.5757844e+01   6.0735918e+01   6.0733341e+01   6.6750442e+01   6.6788426e+01   7.1854598e+01   7.1984681e+01   7.7228433e+01   7.7532554e+01   8.6859773e+01   8.7200782e+01   9.9552710e+01   9.9913515e+01   1.1028148e+02   1.1065471e+02   1.1703154e+02   1.1741035e+02   1.1378973e+02   1.1416898e+02   1.0154913e+02   1.0193049e+02   1.0400000e+02   1.0400000e+02   1.2200000e+02   1.2200000e+02   1.3300000e+02   1.3300000e+02   1.4300000e+02   1.4300000e+02   1.5900000e+02   1.5900000e+02   1.7500000e+02   1.7500000e+02   1.8600000e+02   1.8600000e+02   1.9400000e+02   1.9400000e+02   2.0300000e+02   2.0300000e+02   2.1200000e+02   2.1200000e+02   2.2200000e+02   2.2200000e+02   2.3200000e+02   2.3200000e+02   2.4300000e+02   2.4300000e+02   2.5300000e+02   2.5300000e+02   2.6100000e+02   2.6100000e+02   2.6100000e+02   2.6100000e+02   2.5400000e+02   2.5400000e+02   2.4600000e+02   2.4600000e+02   2.3800000e+02   2.3800000e+02   2.2600000e+02   2.2600000e+02   2.1900000e+02   2.1900000e+02   2.2100000e+02   2.2100000e+02   2.2500000e+02   2.2500000e+02   2.2400000e+02   2.2400000e+02   2.1800000e+02   2.1800000e+02   2.1100000e+02   2.1100000e+02   2.0700000e+02   2.0700000e+02   2.0700000e+02   2.0700000e+02   2.0700000e+02   2.0700000e+02   2.0700000e+02   2.0700000e+02   2.1000000e+02   2.1000000e+02   2.1900000e+02   2.1900000e+02   2.2700000e+02   2.2700000e+02   2.3100000e+02   2.3100000e+02   2.3400000e+02   2.3400000e+02   2.3600000e+02   2.3600000e+02   2.4100000e+02   2.4100000e+02   2.4800000e+02   2.4800000e+02   2.5300000e+02   2.5300000e+02   2.5800000e+02   2.5800000e+02   2.6600000e+02   2.6600000e+02   2.7300000e+02   2.7300000e+02   2.8300000e+02   2.8300000e+02   2.9000000e+02   2.9000000e+02   2.9000000e+02   2.9000000e+02   2.8500000e+02   2.8500000e+02   2.9000000e+02   2.9000000e+02   3.0500000e+02   3.0500000e+02   3.1500000e+02   3.1500000e+02   3.3100000e+02   3.3100000e+02   3.5100000e+02   3.5100000e+02   3.6200000e+02   3.6200000e+02   3.6200000e+02   3.6200000e+02   3.5700000e+02   3.5700000e+02   3.5500000e+02   3.5500000e+02   3.6200000e+02   3.6200000e+02   3.6600000e+02   3.6600000e+02   3.6100000e+02   3.6100000e+02   3.5800000e+02   3.5800000e+02   3.5800000e+02   3.5800000e+02   3.4700000e+02   3.4700000e+02   3.3900000e+02   3.3900000e+02   3.4100000e+02   3.4100000e+02   3.5100000e+02   3.5100000e+02   3.5000000e+02   3.5000000e+02   3.3700000e+02   3.3700000e+02   3.3000000e+02   3.3000000e+02   3.2700000e+02   3.2700000e+02   3.2400000e+02   3.2400000e+02   3.2100000e+02   3.2100000e+02   3.2300000e+02   3.2300000e+02   3.3600000e+02   3.3600000e+02   3.5300000e+02   3.5300000e+02   3.6200000e+02   3.6200000e+02   3.6300000e+02   3.6300000e+02   3.7000000e+02   3.7000000e+02   3.7800000e+02   3.7800000e+02   3.8700000e+02   3.8700000e+02   3.9400000e+02   3.9400000e+02   4.0500000e+02
4.9201317e+01   5.1060115e+01   5.0939175e+01   5.2838708e+01   5.2758693e+01   5.4699026e+01   5.4659659e+01   5.9639883e+01   5.9639271e+01   6.5657559e+01   6.5693482e+01   7.1745968e+01   7.0575377e+01   7.7138956e+01   7.7475672e+01   8.5823240e+01   8.6181642e+01   9.5550033e+01   9.5926717e+01   1.0231039e+02   1.0269868e+02   1.0208966e+02   1.0248121e+02   9.4871380e+01   9.5259476e+01   8.5645324e+01   8.6000000e+01   9.3000000e+01   9.3000000e+01   1.1500000e+02   1.1500000e+02   1.3300000e+02   1.3300000e+02   1.4600000e+02   1.4600000e+02   1.6300000e+02   1.6300000e+02   1.8300000e+02   1.8300000e+02   2.0000000e+02   2.0000000e+02   2.1100000e+02   2.1100000e+02   2.1700000e+02   2.1700000e+02   2.2200000e+02   2.2200000e+02   2.3300000e+02   2.3300000e+02   2.4400000e+02   2.4400000e+02   2.5100000e+02   2.5100000e+02   2.5900000e+02   2.5900000e+02   2.6500000e+02   2.6500000e+02   2.6600000e+02   2.6600000e+02   2.6200000e+02   2.6200000e+02   2.5400000e+02   2.5400000e+02   2.4600000e+02   2.4600000e+02   2.3500000e+02   2.3500000e+02   2.2200000e+02   2.2200000e+02   2.2200000e+02   2.2200000e+02   2.2600000e+02   2.2600000e+02   2.2200000e+02   2.2200000e+02   2.1500000e+02   2.1500000e+02   2.0900000e+02   2.0900000e+02   2.0700000e+02   2.0700000e+02   2.0700000e+02   2.0700000e+02   2.0700000e+02   2.0700000e+02   2.0700000e+02   2.0700000e+02   2.1100000e+02   2.1100000e+02   2.1900000e+02   2.1900000e+02   2.2400000e+02   2.2400000e+02   2.2500000e+02   2.2500000e+02   2.2600000e+02   2.2600000e+02   2.3000000e+02   2.3000000e+02   2.3800000e+02   2.3800000e+02   2.4600000e+02   2.4600000e+02   2.5200000e+02   2.5200000e+02   2.5800000e+02   2.5800000e+02   2.6600000e+02   2.6600000e+02   2.7400000e+02   2.7400000e+02   2.8400000e+02   2.8400000e+02   2.9500000e+02   2.9500000e+02   2.9900000e+02   2.9900000e+02   2.9300000e+02   2.9300000e+02   2.9000000e+02   2.9000000e+02   2.9900000e+02   2.9900000e+02   3.0900000e+02   3.0900000e+02   3.1800000e+02   3.1800000e+02   3.3300000e+02   3.3300000e+02   3.5100000e+02   3.5100000e+02   3.6000000e+02   3.6000000e+02   3.5600000e+02   3.5600000e+02   3.5100000e+02   3.5100000e+02   3.5300000e+02   3.5300000e+02   3.5700000e+02   3.5700000e+02   3.5700000e+02   3.5700000e+02   3.6100000e+02   3.6100000e+02   3.6600000e+02   3.6600000e+02   3.5900000e+02   3.5900000e+02   3.4900000e+02   3.4900000e+02   3.5000000e+02   3.5000000e+02   3.6400000e+02   3.6400000e+02   3.6200000e+02   3.6200000e+02   3.4900000e+02   3.4900000e+02   3.3600000e+02   3.3600000e+02   3.3200000e+02   3.3200000e+02   3.2900000e+02   3.2900000e+02   3.2500000e+02   3.2500000e+02   3.2000000e+02   3.2000000e+02   3.2500000e+02   3.2500000e+02   3.4200000e+02   3.4200000e+02   3.5400000e+02   3.5400000e+02   3.5900000e+02   3.5900000e+02   3.6700000e+02   3.6700000e+02   3.7600000e+02   3.7600000e+02   3.8600000e+02   3.8600000e+02   3.9400000e+02   3.9400000e+02   4.0400000e+02
4.9109834e+01   5.0967790e+01   5.0847089e+01   5.2747527e+01   5.2669391e+01   5.4612626e+01   5.4577289e+01   5.9563130e+01   5.9570151e+01   6.5598824e+01   6.5650424e+01   7.1732647e+01   7.1881036e+01   7.7145216e+01   7.7471918e+01   8.5824019e+01   8.6192411e+01   9.5573445e+01   9.5965025e+01   1.0236429e+02   1.0276842e+02   1.0217456e+02   1.0257956e+02   9.4980987e+01   9.5377123e+01   8.5767317e+01   8.6000000e+01   9.3000000e+01   9.3000000e+01   1.1500000e+02   1.1500000e+02   1.3300000e+02   1.3300000e+02   1.4600000e+02   1.4600000e+02   1.6300000e+02   1.6300000e+02   1.8300000e+02   1.8300000e+02   2.0000000e+02   2.0000000e+02   2.1100000e+02   2.1100000e+02   2.1700000e+02   2.1700000e+02   2.2200000e+02   2.2200000e+02   2.3300000e+02   2.3300000e+02   2.4400000e+02   2.4400000e+02   2.5100000e+02   2.5100000e+02   2.5900000e+02   2.5900000e+02   2.6500000e+02   2.6500000e+02   2.6600000e+02   2.6600000e+02   2.6200000e+02   2.6200000e+02   2.5400000e+02   2.5400000e+02   2.4600000e+02   2.4600000e+02   2.3500000e+02   2.3500000e+02   2.2200000e+02   2.2200000e+02   2.2200000e+02   2.2200000e+02   2.2600000e+02   2.2600000e+02   2.2200000e+02   2.2200000e+02   2.1500000e+02   2.1500000e+02   2.0900000e+02   2.0900000e+02   2.0700000e+02   2.0700000e+02   2.0700000e+02   2.0700000e+02   2.0700000e+02   2.0700000e+02   2.0700000e+02   2.0700000e+02   2.1100000e+02   2.1100000e+02   2.1900000e+02   2.1900000e+02   2.2400000e+02   2.2400000e+02   2.2500000e+02   2.2500000e+02   2.2600000e+02   2.2600000e+02   2.3000000e+02   2.3000000e+02   2.3800000e+02   2.3800000e+02   2.4600000e+02   2.4600000e+02   2.5200000e+02   2.5200000e+02   2.5800000e+02   2.5800000e+02   2.6600000e+02   2.6600000e+02   2.7400000e+02   2.7400000e+02   2.8400000e+02   2.8400000e+02   2.9500000e+02   2.9500000e+02   2.9900000e+02   2.9900000e+02   2.9300000e+02   2.9300000e+02   2.9000000e+02   2.9000000e+02   2.9900000e+02   2.9900000e+02   3.0900000e+02   3.0900000e+02   3.1800000e+02   3.1800000e+02   3.3300000e+02   3.3300000e+02   3.5100000e+02   3.5100000e+02   3.6000000e+02   3.6000000e+02   3.5600000e+02   3.5600000e+02   3.5100000e+02   3.5100000e+02   3.5300000e+02   3.5300000e+02   3.5700000e+02   3.5700000e+02   3.5700000e+02   3.5700000e+02   3.6100000e+02   3.6100000e+02   3.6600000e+02   3.6600000e+02   3.5900000e+02   3.5900000e+02   3.4900000e+02   3.4900000e+02   3.5000000e+02   3.5000000e+02   3.6400000e+02   3.6400000e+02   3.6200000e+02   3.6200000e+02   3.4900000e+02   3.4900000e+02   3.3600000e+02   3.3600000e+02   3.3200000e+02   3.3200000e+02   3.2900000e+02   3.2900000e+02   3.2500000e+02   3.2500000e+02   3.2000000e+02   3.2000000e+02   3.2500000e+02   3.2500000e+02   3.4200000e+02   3.4200000e+02   3.5400000e+02   3.5400000e+02   3.5900000e+02   3.5900000e+02   3.6700000e+02   3.6700000e+02   3.7600000e+02   3.7600000e+02   3.8600000e+02   3.8600000e+02   3.9400000e+02   3.9400000e+02   4.0400000e+02
5.0027102e+01   5.1884658e+01   5.1764498e+01   5.3666421e+01   5.3591142e+01   5.6538540e+01   5.6509128e+01   6.0503469e+01   6.0522313e+01   6.6567473e+01   6.6643737e+01   7.1761764e+01   7.1941067e+01   7.7194485e+01   7.7506450e+01   8.2855502e+01   8.3229325e+01   8.7621322e+01   8.8027072e+01   8.8442934e+01   8.8864447e+01   8.3287577e+01   8.3707845e+01   7.8121385e+01   7.8525388e+01   8.1918932e+01   8.2000000e+01   9.8000000e+01   9.8000000e+01   1.1700000e+02   1.1700000e+02   1.3300000e+02   1.3300000e+02   1.4800000e+02   1.4800000e+02   1.6300000e+02   1.6300000e+02   1.8200000e+02   1.8200000e+02   2.0100000e+02   2.0100000e+02   2.1700000e+02   2.1700000e+02   2.3000000e+02   2.3000000e+02   2.3900000e+02   2.3900000e+02   2.4700000e+02   2.4700000e+02   2.5600000e+02   2.5600000e+02   2.6000000e+02   2.6000000e+02   2.6000000e+02   2.6000000e+02   2.5900000e+02   2.5900000e+02   2.6100000e+02   2.6100000e+02   2.6100000e+02   2.6100000e+02   2.5200000e+02   2.5200000e+02   2.4200000e+02   2.4200000e+02   2.3200000e+02   2.3200000e+02   2.2100000e+02   2.2100000e+02   2.1800000e+02   2.1800000e+02   2.2000000e+02   2.2000000e+02   2.1600000e+02   2.1600000e+02   2.1100000e+02   2.1100000e+02   2.0800000e+02   2.0800000e+02   2.0700000e+02   2.0700000e+02   2.0700000e+02   2.0700000e+02   2.0700000e+02   2.0700000e+02   2.0700000e+02   2.0700000e+02   2.0800000e+02   2.0800000e+02   2.1300000e+02   2.1300000e+02   2.1700000e+02   2.1700000e+02   2.1800000e+02   2.1800000e+02   2.2000000e+02   2.2000000e+02   2.2500000e+02   2.2500000e+02   2.3400000e+02   2.3400000e+02   2.4100000e+02   2.4100000e+02   2.4800000e+02   2.4800000e+02   2.5600000e+02   2.5600000e+02   2.6400000e+02   2.6400000e+02   2.7300000e+02   2.7300000e+02   2.8200000e+02   2.8200000e+02   2.9400000e+02   2.9400000e+02   3.0300000e+02   3.0300000e+02   3.0000000e+02   3.0000000e+02   2.9200000e+02   2.9200000e+02   2.9300000e+02   2.9300000e+02   3.0300000e+02   3.0300000e+02   3.1200000e+02   3.1200000e+02   3.2200000e+02   3.2200000e+02   3.3400000e+02   3.3400000e+02   3.4600000e+02   3.4600000e+02   3.5000000e+02   3.5000000e+02   3.4700000e+02   3.4700000e+02   3.4700000e+02   3.4700000e+02   3.5000000e+02   3.5000000e+02   3.5400000e+02   3.5400000e+02   3.5900000e+02   3.5900000e+02   3.6300000e+02   3.6300000e+02   3.6100000e+02   3.6100000e+02   3.5400000e+02   3.5400000e+02   3.5800000e+02   3.5800000e+02   3.6900000e+02   3.6900000e+02   3.6300000e+02   3.6300000e+02   3.4900000e+02   3.4900000e+02   3.3900000e+02   3.3900000e+02   3.3300000e+02   3.3300000e+02   3.2800000e+02   3.2800000e+02   3.2400000e+02   3.2400000e+02   3.2000000e+02   3.2000000e+02   3.1800000e+02   3.1800000e+02   3.2900000e+02   3.2900000e+02   3.4500000e+02   3.4500000e+02   3.5500000e+02   3.5500000e+02   3.6500000e+02   3.6500000e+02   3.7500000e+02   3.7500000e+02   3.8400000e+02   3.8400000e+02   3.9200000e+02   3.9200000e+02   4.0200000e+02
4.9952185e+01   5.1809624e+01   5.1690205e+01   5.3594252e+01   5.3522190e+01   5.6474793e+01   5.6452591e+01   6.0456951e+01   6.0489179e+01   6.6552226e+01   6.6651682e+01   7.1795502e+01   7.1993209e+01   7.7249163e+01   7.7557212e+01   8.2906085e+01   8.3285772e+01   8.7689172e+01   8.8110803e+01   8.8545185e+01   8.8987305e+01   8.3430764e+01   8.3869187e+01   7.8296807e+01   7.8709030e+01   8.2000000e+01   8.2000000e+01   9.8000000e+01   9.8000000e+01   1.1700000e+02   1.1700000e+02   1.3300000e+02   1.3300000e+02   1.4800000e+02   1.4800000e+02   1.6300000e+02   1.6300000e+02   1.8200000e+02   1.8200000e+02   2.0100000e+02   2.0100000e+02   2.1700000e+02   2.1700000e+02   2.3000000e+02   2.3000000e+02   2.3900000e+02   2.3900000e+02   2.4700000e+02   2.4700000e+02   2.5600000e+02   2.5600000e+02   2.6000000e+02   2.6000000e+02   2.6000000e+02   2.6000000e+02   2.5900000e+02   2.5900000e+02   2.6100000e+02   2.6100000e+02   2.6100000e+02   2.6100000e+02   2.5200000e+02   2.5200000e+02   2.4200000e+02   2.4200000e+02   2.3200000e+02   2.3200000e+02   2.2100000e+02   2.2100000e+02   2.1800000e+02   2.1800000e+02   2.2000000e+02   2.2000000e+02   2.1600000e+02   2.1600000e+02   2.1100000e+02   2.1100000e+02   2.0800000e+02   2.0800000e+02   2.0700000e+02   2.0700000e+02   2.0700000e+02   2.0700000e+02   2.0700000e+02   2.0700000e+02   2.0700000e+02   2.0700000e+02   2.0800000e+02   2.0800000e+02   2.1300000e+02   2.1300000e+02   2.1700000e+02   2.1700000e+02   2.1800000e+02   2.1800000e+02   2.2000000e+02   2.2000000e+02   2.2500000e+02   2.2500000e+02   2.3400000e+02   2.3400000e+02   2.4100000e+02   2.4100000e+02   2.4800000e+02   2.4800000e+02   2.5600000e+02   2.5600000e+02   2.6400000e+02   2.6400000e+02   2.7300000e+02   2.7300000e+02   2.8200000e+02   2.8200000e+02   2.9400000e+02   2.9400000e+02   3.0300000e+02   3.0300000e+02   3.0000000e+02   3.0000000e+02   2.9200000e+02   2.9200000e+02   2.9300000e+02   2.9300000e+02   3.0300000e+02   3.0300000e+02   3.1200000e+02   3.1200000e+02   3.2200000e+02   3.2200000e+02   3.3400000e+02   3.3400000e+02   3.4600000e+02   3.4600000e+02   3.5000000e+02   3.5000000e+02   3.4700000e+02   3.4700000e+02   3.4700000e+02   3.4700000e+02   3.5000000e+02   3.5000000e+02   3.5400000e+02   3.5400000e+02   3.5900000e+02   3.5900000e+02   3.6300000e+02   3.6300000e+02   3.6100000e+02   3.6100000e+02   3.5400000e+02   3.5400000e+02   3.5800000e+02   3.5800000e+02   3.6900000e+02   3.6900000e+02   3.6300000e+02   3.6300000e+02   3.4900000e+02   3.4900000e+02   3.3900000e+02   3.3900000e+02   3.3300000e+02   3.3300000e+02   3.2800000e+02   3.2800000e+02   3.2400000e+02   3.2400000e+02   3.2000000e+02   3.2000000e+02   3.1800000e+02   3.1800000e+02   3.2900000e+02   3.2900000e+02   3.4500000e+02   3.4500000e+02   3.5500000e+02   3.5500000e+02   3.6500000e+02   3.6500000e+02   3.7500000e+02   3.7500000e+02   3.8400000e+02   3.8400000e+02   3.9200000e+02   3.9200000e+02   4.0200000e+02
4.7884461e+01   4.9741757e+01   4.9623187e+01   5.2529354e+01   5.2460930e+01   5.7418917e+01   5.7404232e+01   6.1418428e+01   6.1463756e+01   6.6543379e+01   6.6661730e+01   6.9824507e+01   7.0036598e+01   7.1299989e+01   7.1611723e+01   7.3965440e+01   7.4354362e+01   7.5772040e+01   7.6212529e+01   7.4669816e+01   7.5137197e+01   7.2606389e+01   7.3068229e+01   7.9513432e+01   7.9934762e+01   9.4000000e+01   9.4000000e+01   1.0900000e+02   1.0900000e+02   1.2400000e+02   1.2400000e+02   1.3900000e+02   1.3900000e+02   1.5400000e+02   1.5400000e+02   1.6900000e+02   1.6900000e+02   1.8600000e+02   1.8600000e+02   2.0400000e+02   2.0400000e+02   2.2200000e+02   2.2200000e+02   2.3900000e+02   2.3900000e+02   2.5000000e+02   2.5000000e+02   2.5800000e+02   2.5800000e+02   2.7000000e+02   2.7000000e+02   2.7500000e+02   2.7500000e+02   2.7000000e+02   2.7000000e+02   2.6300000e+02   2.6300000e+02   2.6000000e+02   2.6000000e+02   2.5800000e+02   2.5800000e+02   2.4700000e+02   2.4700000e+02   2.3400000e+02   2.3400000e+02   2.2400000e+02   2.2400000e+02   2.1700000e+02   2.1700000e+02   2.1400000e+02   2.1400000e+02   2.1400000e+02   2.1400000e+02   2.1300000e+02   2.1300000e+02   2.0900000e+02   2.0900000e+02   2.0700000e+02   2.0700000e+02   2.0700000e+02   2.0700000e+02   2.0700000e+02   2.0700000e+02   2.0700000e+02   2.0700000e+02   2.0700000e+02   2.0700000e+02   2.0700000e+02   2.0700000e+02   2.0900000e+02   2.0900000e+02   2.1300000e+02   2.1300000e+02   2.1800000e+02   2.1800000e+02   2.2200000e+02   2.2200000e+02   2.2400000e+02   2.2400000e+02   2.2800000e+02   2.2800000e+02   2.3500000e+02   2.3500000e+02   2.4200000e+02   2.4200000e+02   2.5100000e+02   2.5100000e+02   2.6000000e+02   2.6000000e+02   2.6600000e+02   2.6600000e+02   2.7400000e+02   2.7400000e+02   2.8500000e+02   2.8500000e+02   2.9600000e+02   2.9600000e+02   2.9700000e+02   2.9700000e+02   2.9100000e+02   2.9100000e+02   2.8900000e+02   2.8900000e+02   2.9700000e+02   2.9700000e+02   3.0600000e+02   3.0600000e+02   3.1500000e+02   3.1500000e+02   3.2400000e+02   3.2400000e+02   3.3300000e+02   3.3300000e+02   3.4100000e+02   3.4100000e+02   3.4500000e+02   3.4500000e+02   3.4800000e+02   3.4800000e+02   3.5100000e+02   3.5100000e+02   3.5200000e+02   3.5200000e+02   3.5500000e+02   3.5500000e+02   3.5700000e+02   3.5700000e+02   3.5600000e+02   3.5600000e+02   3.5600000e+02   3.5600000e+02   3.6700000e+02   3.6700000e+02   3.7900000e+02   3.7900000e+02   3.7200000e+02   3.7200000e+02   3.5800000e+02   3.5800000e+02   3.4300000e+02   3.4300000e+02   3.3300000e+02   3.3300000e+02   3.2600000e+02   3.2600000e+02   3.2000000e+02   3.2000000e+02   3.1700000e+02   3.1700000e+02   3.1500000e+02   3.1500000e+02   3.2200000e+02   3.2200000e+02   3.3800000e+02   3.3800000e+02   3.5100000e+02   3.5100000e+02   3.6300000e+02   3.6300000e+02   3.7300000e+02   3.7300000e+02   3.8200000e+02   3.8200000e+02   3.9000000e+02   3.9000000e+02   4.0100000e+02
4.7822980e+01   4.9679988e+01   4.9561994e+01   5.2470127e+01   5.2405014e+01   5.7367864e+01   5.7360195e+01   6.1383682e+01   6.1440652e+01   6.6534056e+01   6.6667706e+01   6.9845359e+01   7.0070223e+01   7.1343288e+01   7.1663272e+01   7.4026504e+01   7.4428362e+01   7.5863962e+01   7.6328012e+01   7.4814047e+01   7.5314008e+01   7.2817324e+01   7.3310998e+01   7.9780406e+01   8.0000000e+01   9.4000000e+01   9.4000000e+01   1.0900000e+02   1.0900000e+02   1.2400000e+02   1.2400000e+02   1.3900000e+02   1.3900000e+02   1.5400000e+02   1.5400000e+02   1.6900000e+02   1.6900000e+02   1.8600000e+02   1.8600000e+02   2.0400000e+02   2.0400000e+02   2.2200000e+02   2.2200000e+02   2.3900000e+02   2.3900000e+02   2.5000000e+02   2.5000000e+02   2.5800000e+02   2.5800000e+02   2.7000000e+02   2.7000000e+02   2.7500000e+02   2.7500000e+02   2.7000000e+02   2.7000000e+02   2.6300000e+02   2.6300000e+02   2.6000000e+02   2.6000000e+02   2.5800000e+02   2.5800000e+02   2.4700000e+02   2.4700000e+02   2.3400000e+02   2.3400000e+02   2.2400000e+02   2.2400000e+02   2.1700000e+02   2.1700000e+02   2.1400000e+02   2.1400000e+02   2.1400000e+02   2.1400000e+02   2.1300000e+02   2.1300000e+02   2.0900000e+02   2.0900000e+02   2.0700000e+02   2.0700000e+02   2.0700000e+02   2.0700000e+02   2.0700000e+02   2.0700000e+02   2.0700000e+02   2.0700000e+02   2.0700000e+02   2.0700000e+02   2.0700000e+02   2.0700000e+02   2.0900000e+02   2.0900000e+02   2.1300000e+02   2.1300000e+02   2.1800000e+02   2.1800000e+02   2.2200000e+02   2.2200000e+02   2.2400000e+02   2.2400000e+02   2.2800000e+02   2.2800000e+02   2.3500000e+02   2.3500000e+02   2.4200000e+02   2.4200000e+02   2.5100000e+02   2.5100000e+02   2.6000000e+02   2.6000000e+02   2.6600000e+02   2.6600000e+02   2.7400000e+02   2.7400000e+02   2.8500000e+02   2.8500000e+02   2.9600000e+02   2.9600000e+02   2.9700000e+02   2.9700000e+02   2.9100000e+02   2.9100000e+02   2.8900000e+02   2.8900000e+02   2.9700000e+02   2.9700000e+02   3.0600000e+02   3.0600000e+02   3.1500000e+02   3.1500000e+02   3.2400000e+02   3.2400000e+02   3.3300000e+02   3.3300000e+02   3.4100000e+02   3.4100000e+02   3.4500000e+02   3.4500000e+02   3.4800000e+02   3.4800000e+02   3.5100000e+02   3.5100000e+02   3.5200000e+02   3.5200000e+02   3.5500000e+02   3.5500000e+02   3.5700000e+02   3.5700000e+02   3.5600000e+02   3.5600000e+02   3.5600000e+02   3.5600000e+02   3.6700000e+02   3.6700000e+02   3.7900000e+02   3.7900000e+02   3.7200000e+02   3.7200000e+02   3.5800000e+02   3.5800000e+02   3.4300000e+02   3.4300000e+02   3.3300000e+02   3.3300000e+02   3.2600000e+02   3.2600000e+02   3.2000000e+02   3.2000000e+02   3.1700000e+02   3.1700000e+02   3.1500000e+02   3.1500000e+02   3.2200000e+02   3.2200000e+02   3.3800000e+02   3.3800000e+02   3.5100000e+02   3.5100000e+02   3.6300000e+02   3.6300000e+02   3.7300000e+02   3.7300000e+02   3.8200000e+02   3.8200000e+02   3.9000000e+02   3.9000000e+02   4.0100000e+02
4.2766527e+01   4.7622745e+01   4.7505096e+01   5.2414511e+01   5.2352113e+01   5.7319281e+01   5.7317608e+01   6.2348980e+01   6.2415711e+01   6.6520465e+01   6.6666332e+01   6.3856194e+01   6.4092401e+01   5.9376087e+01   5.9706822e+01   5.9082829e+01   5.9501450e+01   6.1959363e+01   6.2452347e+01   6.6974515e+01   6.7517082e+01   7.8067250e+01   7.8606543e+01   9.0000000e+01   9.0000000e+01   1.0300000e+02   1.0300000e+02   1.1800000e+02   1.1800000e+02   1.3200000e+02   1.3200000e+02   1.4800000e+02   1.4800000e+02   1.6300000e+02   1.6300000e+02   1.7800000e+02   1.7800000e+02   1.9800000e+02   1.9800000e+02   2.2200000e+02   2.2200000e+02   2.4500000e+02   2.4500000e+02   2.6000000e+02   2.6000000e+02   2.6600000e+02   2.6600000e+02   2.7000000e+02   2.7000000e+02   2.8100000e+02   2.8100000e+02   2.8500000e+02   2.8500000e+02   2.8400000e+02   2.8400000e+02   2.8000000e+02   2.8000000e+02   2.7200000e+02   2.7200000e+02   2.6100000e+02   2.6100000e+02   2.4500000e+02   2.4500000e+02   2.2800000e+02   2.2800000e+02   2.1900000e+02   2.1900000e+02   2.1500000e+02   2.1500000e+02   2.1200000e+02   2.1200000e+02   2.1000000e+02   2.1000000e+02   2.0900000e+02   2.0900000e+02   2.0800000e+02   2.0800000e+02   2.0700000e+02   2.0700000e+02   2.0700000e+02   2.0700000e+02   2.0700000e+02   2.0700000e+02   2.0700000e+02   2.0700000e+02   2.0700000e+02   2.0700000e+02   2.0800000e+02   2.0800000e+02   2.1200000e+02   2.1200000e+02   2.1800000e+02   2.1800000e+02   2.2700000e+02   2.2700000e+02   2.3200000e+02   2.3200000e+02   2.3000000e+02   2.3000000e+02   2.3100000e+02   2.3100000e+02   2.3700000e+02   2.3700000e+02   2.4500000e+02   2.4500000e+02   2.5000000e+02   2.5000000e+02   2.5500000e+02   2.5500000e+02   2.5900000e+02   2.5900000e+02   2.6600000e+02   2.6600000e+02   2.7700000e+02   2.7700000e+02   2.8700000e+02   2.8700000e+02   2.8700000e+02   2.8700000e+02   2.8800000e+02   2.8800000e+02   2.9100000e+02   2.9100000e+02   2.9400000e+02   2.9400000e+02   3.0100000e+02   3.0100000e+02   3.0900000e+02   3.0900000e+02   3.1600000e+02   3.1600000e+02   3.2900000e+02   3.2900000e+02   3.4300000e+02   3.4300000e+02   3.5100000e+02   3.5100000e+02   3.5500000e+02   3.5500000e+02   3.5500000e+02   3.5500000e+02   3.5300000e+02   3.5300000e+02   3.5200000e+02   3.5200000e+02   3.5200000e+02   3.5200000e+02   3.5200000e+02   3.5200000e+02   3.6000000e+02   3.6000000e+02   3.7700000e+02   3.7700000e+02   3.8600000e+02   3.8600000e+02   3.8000000e+02   3.8000000e+02   3.6800000e+02   3.6800000e+02   3.5200000e+02   3.5200000e+02   3.3700000e+02   3.3700000e+02   3.2700000e+02   3.2700000e+02   3.2000000e+02   3.2000000e+02   3.1500000e+02   3.1500000e+02   3.1300000e+02   3.1300000e+02   3.1800000e+02   3.1800000e+02   3.3400000e+02   3.3400000e+02   3.5200000e+02   3.5200000e+02   3.6300000e+02   3.6300000e+02   3.7200000e+02   3.7200000e+02   3.8000000e+02   3.8000000e+02   3.9000000e+02   3.9000000e+02   4.0200000e+02
4.2714349e+01   4.7569110e+01   4.7451000e+01   5.2360974e+01   5.2300500e+01   5.7270920e+01   5.7273960e+01   6.2311591e+01   6.2386046e+01   6.6499721e+01   6.6655214e+01   6.3855148e+01   6.4101559e+01   5.9395785e+01   5.9738416e+01   5.9129186e+01   5.9567213e+01   6.2051119e+01   6.2578447e+01   6.7145200e+01   6.7743314e+01   7.8358701e+01   7.8966848e+01   9.0000000e+01   9.0000000e+01   1.0300000e+02   1.0300000e+02   1.1800000e+02   1.1800000e+02   1.3200000e+02   1.3200000e+02   1.4800000e+02   1.4800000e+02   1.6300000e+02   1.6300000e+02   1.7800000e+02   1.7800000e+02   1.9800000e+02   1.9800000e+02   2.2200000e+02   2.2200000e+02   2.4500000e+02   2.4500000e+02   2.6000000e+02   2.6000000e+02   2.6600000e+02   2.6600000e+02   2.7000000e+02   2.7000000e+02   2.8100000e+02   2.8100000e+02   2.8500000e+02   2.8500000e+02   2.8400000e+02   2.8400000e+02   2.8000000e+02   2.8000000e+02   2.7200000e+02   2.7200000e+02   2.6100000e+02   2.6100000e+02   2.4500000e+02   2.4500000e+02   2.2800000e+02   2.2800000e+02   2.1900000e+02   2.1900000e+02   2.1500000e+02   2.1500000e+02   2.1200000e+02   2.1200000e+02   2.1000000e+02   2.1000000e+02   2.0900000e+02   2.0900000e+02   2.0800000e+02   2.0800000e+02   2.0700000e+02   2.0700000e+02   2.0700000e+02   2.0700000e+02   2.0700000e+02   2.0700000e+02   2.0700000e+02   2.0700000e+02   2.0700000e+02   2.0700000e+02   2.0800000e+02   2.0800000e+02   2.1200000e+02   2.1200000e+02   2.1800000e+02   2.1800000e+02   2.2700000e+02   2.2700000e+02   2.3200000e+02   2.3200000e+02   2.3000000e+02   2.3000000e+02   2.3100000e+02   2.3100000e+02   2.3700000e+02   2.3700000e+02   2.4500000e+02   2.4500000e+02   2.5000000e+02   2.5000000e+02   2.5500000e+02   2.5500000e+02   2.5900000e+02   2.5900000e+02   2.6600000e+02   2.6600000e+02   2.7700000e+02   2.7700000e+02   2.8700000e+02   2.8700000e+02   2.8700000e+02   2.8700000e+02   2.8800000e+02   2.8800000e+02   2.9100000e+02   2.9100000e+02   2.9400000e+02   2.9400000e+02   3.0100000e+02   3.0100000e+02   3.0900000e+02   3.0900000e+02   3.1600000e+02   3.1600000e+02   3.2900000e+02   3.2900000e+02   3.4300000e+02   3.4300000e+02   3.5100000e+02   3.5100000e+02   3.5500000e+02   3.5500000e+02   3.5500000e+02   3.5500000e+02   3.5300000e+02   3.5300000e+02   3.5200000e+02   3.5200000e+02   3.5200000e+02   3.5200000e+02   3.5200000e+02   3.5200000e+02   3.6000000e+02   3.6000000e+02   3.7700000e+02   3.7700000e+02   3.8600000e+02   3.8600000e+02   3.8000000e+02   3.8000000e+02   3.6800000e+02   3.6800000e+02   3.5200000e+02   3.5200000e+02   3.3700000e+02   3.3700000e+02   3.2700000e+02   3.2700000e+02   3.2000000e+02   3.2000000e+02   3.1500000e+02   3.1500000e+02   3.1300000e+02   3.1300000e+02   3.1800000e+02   3.1800000e+02   3.3400000e+02   3.3400000e+02   3.5200000e+02   3.5200000e+02   3.6300000e+02   3.6300000e+02   3.7200000e+02   3.7200000e+02   3.8000000e+02   3.8000000e+02   3.9000000e+02   3.9000000e+02   4.0200000e+02
4.1665594e+01   4.7518197e+01   4.7398669e+01   5.3308243e+01   5.3248381e+01   5.9220741e+01   5.9226954e+01   6.1269146e+01   6.1349218e+01   5.9469521e+01   5.9632456e+01   5.5840464e+01   5.6095619e+01   5.5399641e+01   5.5754001e+01   6.3159976e+01   6.3618584e+01   7.2130757e+01   7.2696857e+01   8.1316345e+01   8.1985119e+01   8.9691146e+01   9.0000000e+01   9.9000000e+01   9.9000000e+01   1.0900000e+02   1.0900000e+02   1.2100000e+02   1.2100000e+02   1.3600000e+02   1.3600000e+02   1.5300000e+02   1.5300000e+02   1.6900000e+02   1.6900000e+02   1.8700000e+02   1.8700000e+02   2.0900000e+02   2.0900000e+02   2.3600000e+02   2.3600000e+02   2.5900000e+02   2.5900000e+02   2.7200000e+02   2.7200000e+02   2.7900000e+02   2.7900000e+02   2.8200000e+02   2.8200000e+02   2.8400000e+02   2.8400000e+02   2.9100000e+02   2.9100000e+02   2.9400000e+02   2.9400000e+02   2.9100000e+02   2.9100000e+02   2.7900000e+02   2.7900000e+02   2.6700000e+02   2.6700000e+02   2.5100000e+02   2.5100000e+02   2.3200000e+02   2.3200000e+02   2.1800000e+02   2.1800000e+02   2.1500000e+02   2.1500000e+02   2.1200000e+02   2.1200000e+02   2.0900000e+02   2.0900000e+02   2.0800000e+02   2.0800000e+02   2.0800000e+02   2.0800000e+02   2.0700000e+02   2.0700000e+02   2.0700000e+02   2.0700000e+02   2.0700000e+02   2.0700000e+02   2.0700000e+02   2.0700000e+02   2.0700000e+02   2.0700000e+02   2.0900000e+02   2.0900000e+02   2.1400000e+02   2.1400000e+02   2.2300000e+02   2.2300000e+02   2.3500000e+02   2.3500000e+02   2.3800000e+02   2.3800000e+02   2.3400000e+02   2.3400000e+02   2.3300000e+02   2.3300000e+02   2.3700000e+02   2.3700000e+02   2.4300000e+02   2.4300000e+02   2.4900000e+02   2.4900000e+02   2.5500000e+02   2.5500000e+02   2.6100000e+02   2.6100000e+02   2.6700000e+02   2.6700000e+02   2.7500000e+02   2.7500000e+02   2.8100000e+02   2.8100000e+02   2.8400000e+02   2.8400000e+02   2.9100000e+02   2.9100000e+02   2.9700000e+02   2.9700000e+02   2.9600000e+02   2.9600000e+02   2.9700000e+02   2.9700000e+02   3.0200000e+02   3.0200000e+02   3.1100000e+02   3.1100000e+02   3.2600000e+02   3.2600000e+02   3.4500000e+02   3.4500000e+02   3.5800000e+02   3.5800000e+02   3.6200000e+02   3.6200000e+02   3.6000000e+02   3.6000000e+02   3.5500000e+02   3.5500000e+02   3.5200000e+02   3.5200000e+02   3.5200000e+02   3.5200000e+02   3.5200000e+02   3.5200000e+02   3.6200000e+02   3.6200000e+02   3.8100000e+02   3.8100000e+02   3.9100000e+02   3.9100000e+02   3.8400000e+02   3.8400000e+02   3.7400000e+02   3.7400000e+02   3.6100000e+02   3.6100000e+02   3.4400000e+02   3.4400000e+02   3.3100000e+02   3.3100000e+02   3.2300000e+02   3.2300000e+02   3.1700000e+02   3.1700000e+02   3.1300000e+02   3.1300000e+02   3.1700000e+02   3.1700000e+02   3.3200000e+02   3.3200000e+02   3.5000000e+02   3.5000000e+02   3.6300000e+02   3.6300000e+02   3.7200000e+02   3.7200000e+02   3.8100000e+02   3.8100000e+02   3.9000000e+02   3.9000000e+02   4.0100000e+02
4.1619617e+01   4.7468972e+01   4.7346896e+01   5.3254827e+01   5.3194389e+01   5.9167176e+01   5.9174955e+01   6.1219666e+01   6.1303352e+01   5.9428133e+01   5.9596360e+01   5.5810340e+01   5.6072386e+01   5.5384673e+01   5.5749481e+01   6.3169589e+01   6.3647889e+01   7.2188036e+01   7.2794387e+01   8.1472017e+01   8.2225138e+01   9.0000000e+01   9.0000000e+01   9.9000000e+01   9.9000000e+01   1.0900000e+02   1.0900000e+02   1.2100000e+02   1.2100000e+02   1.3600000e+02   1.3600000e+02   1.5300000e+02   1.5300000e+02   1.6900000e+02   1.6900000e+02   1.8700000e+02   1.8700000e+02   2.0900000e+02   2.0900000e+02   2.3600000e+02   2.3600000e+02   2.5900000e+02   2.5900000e+02   2.7200000e+02   2.7200000e+02   2.7900000e+02   2.7900000e+02   2.8200000e+02   2.8200000e+02   2.8400000e+02   2.8400000e+02   2.9100000e+02   2.9100000e+02   2.9400000e+02   2.9400000e+02   2.9100000e+02   2.9100000e+02   2.7900000e+02   2.7900000e+02   2.6700000e+02   2.6700000e+02   2.5100000e+02   2.5100000e+02   2.3200000e+02   2.3200000e+02   2.1800000e+02   2.1800000e+02   2.1500000e+02   2.1500000e+02   2.1200000e+02   2.1200000e+02   2.0900000e+02   2.0900000e+02   2.0800000e+02   2.0800000e+02   2.0800000e+02   2.0800000e+02   2.0700000e+02   2.0700000e+02   2.0700000e+02   2.0700000e+02   2.0700000e+02   2.0700000e+02   2.0700000e+02   2.0700000e+02   2.0700000e+02   2.0700000e+02   2.0900000e+02   2.0900000e+02   2.1400000e+02   2.1400000e+02   2.2300000e+02   2.2300000e+02   2.3500000e+02   2.3500000e+02   2.3800000e+02   2.3800000e+02   2.3400000e+02   2.3400000e+02   2.3300000e+02   2.3300000e+02   2.3700000e+02   2.3700000e+02   2.4300000e+02   2.4300000e+02   2.4900000e+02   2.4900000e+02   2.5500000e+02   2.5500000e+02   2.6100000e+02   2.6100000e+02   2.6700000e+02   2.6700000e+02   2.7500000e+02   2.7500000e+02   2.8100000e+02   2.8100000e+02   2.8400000e+02   2.8400000e+02   2.9100000e+02   2.9100000e+02   2.9700000e+02   2.9700000e+02   2.9600000e+02   2.9600000e+02   2.9700000e+02   2.9700000e+02   3.0200000e+02   3.0200000e+02   3.1100000e+02   3.1100000e+02   3.2600000e+02   3.2600000e+02   3.4500000e+02   3.4500000e+02   3.5800000e+02   3.5800000e+02   3.6200000e+02   3.6200000e+02   3.6000000e+02   3.6000000e+02   3.5500000e+02   3.5500000e+02   3.5200000e+02   3.5200000e+02   3.5200000e+02   3.5200000e+02   3.5200000e+02   3.5200000e+02   3.6200000e+02   3.6200000e+02   3.8100000e+02   3.8100000e+02   3.9100000e+02   3.9100000e+02   3.8400000e+02   3.8400000e+02   3.7400000e+02   3.7400000e+02   3.6100000e+02   3.6100000e+02   3.4400000e+02   3.4400000e+02   3.3100000e+02   3.3100000e+02   3.2300000e+02   3.2300000e+02   3.1700000e+02   3.1700000e+02   3.1300000e+02   3.1300000e+02   3.1700000e+02   3.1700000e+02   3.3200000e+02   3.3200000e+02   3.5000000e+02   3.5000000e+02   3.6300000e+02   3.6300000e+02   3.7200000e+02   3.7200000e+02   3.8100000e+02   3.8100000e+02   3.9000000e+02   3.9000000e+02   4.0100000e+02
4.3575729e+01   4.9420519e+01   4.9294639e+01   5.4199570e+01   5.4137058e+01   5.6108734e+01   5.6116352e+01   5.4161806e+01   5.4247058e+01   5.2374199e+01   5.2545409e+01   5.5763128e+01   5.6029755e+01   6.5347975e+01   6.5720900e+01   7.8152264e+01   7.8646922e+01   8.8211178e+01   8.8854045e+01   9.5587904e+01   9.6430012e+01   1.0000000e+02   1.0000000e+02   1.0800000e+02   1.0800000e+02   1.1700000e+02   1.1700000e+02   1.2700000e+02   1.2700000e+02   1.4000000e+02   1.4000000e+02   1.5600000e+02   1.5600000e+02   1.7300000e+02   1.7300000e+02   1.9500000e+02   1.9500000e+02   2.2000000e+02   2.2000000e+02   2.4800000e+02   2.4800000e+02   2.7300000e+02   2.7300000e+02   2.8600000e+02   2.8600000e+02   2.9200000e+02   2.9200000e+02   2.9100000e+02   2.9100000e+02   2.8500000e+02   2.8500000e+02   2.9100000e+02   2.9100000e+02   2.9600000e+02   2.9600000e+02   2.9400000e+02   2.9400000e+02   2.8200000e+02   2.8200000e+02   2.6700000e+02   2.6700000e+02   2.5100000e+02   2.5100000e+02   2.3300000e+02   2.3300000e+02   2.1900000e+02   2.1900000e+02   2.1500000e+02   2.1500000e+02   2.1100000e+02   2.1100000e+02   2.1000000e+02   2.1000000e+02   2.0900000e+02   2.0900000e+02   2.0800000e+02   2.0800000e+02   2.0800000e+02   2.0800000e+02   2.0700000e+02   2.0700000e+02   2.0700000e+02   2.0700000e+02   2.0700000e+02   2.0700000e+02   2.0700000e+02   2.0700000e+02   2.0900000e+02   2.0900000e+02   2.1400000e+02   2.1400000e+02   2.2300000e+02   2.2300000e+02   2.3300000e+02   2.3300000e+02   2.3400000e+02   2.3400000e+02   2.3100000e+02   2.3100000e+02   2.3300000e+02   2.3300000e+02   2.3800000e+02   2.3800000e+02   2.4600000e+02   2.4600000e+02   2.5500000e+02   2.5500000e+02   2.6100000e+02   2.6100000e+02   2.6400000e+02   2.6400000e+02   2.6700000e+02   2.6700000e+02   2.7100000e+02   2.7100000e+02   2.7500000e+02   2.7500000e+02   2.8200000e+02   2.8200000e+02   2.9400000e+02   2.9400000e+02   3.0200000e+02   3.0200000e+02   3.0100000e+02   3.0100000e+02   2.9900000e+02   2.9900000e+02   3.0100000e+02   3.0100000e+02   3.1100000e+02   3.1100000e+02   3.2700000e+02   3.2700000e+02   3.4900000e+02   3.4900000e+02   3.6300000e+02   3.6300000e+02   3.6700000e+02   3.6700000e+02   3.6300000e+02   3.6300000e+02   3.5700000e+02   3.5700000e+02   3.5400000e+02   3.5400000e+02   3.5600000e+02   3.5600000e+02   3.5400000e+02   3.5400000e+02   3.6300000e+02   3.6300000e+02   3.8700000e+02   3.8700000e+02   3.9800000e+02   3.9800000e+02   3.9500000e+02   3.9500000e+02   3.8300000e+02   3.8300000e+02   3.6900000e+02   3.6900000e+02   3.5300000e+02   3.5300000e+02   3.3900000e+02   3.3900000e+02   3.2800000e+02   3.2800000e+02   3.1900000e+02   3.1900000e+02   3.1400000e+02   3.1400000e+02   3.1500000e+02   3.1500000e+02   3.3000000e+02   3.3000000e+02   3.4600000e+02   3.4600000e+02   3.6000000e+02   3.6000000e+02   3.7000000e+02   3.7000000e+02   3.7900000e+02   3.7900000e+02   3.8500000e+02   3.8500000e+02   3.9300000e+02
4.3533378e+01   4.9372144e+01   4.9240906e+01   5.4141425e+01   5.4075292e+01   5.6044213e+01   5.6049878e+01   5.4094242e+01   5.4179091e+01   5.2306393e+01   5.2478402e+01   5.5697455e+01   5.5966103e+01   6.5287324e+01   6.5664718e+01   7.8102877e+01   7.8607939e+01   8.8188495e+01   8.8857182e+01   9.5633114e+01   9.6546911e+01   1.0000000e+02   1.0000000e+02   1.0800000e+02   1.0800000e+02   1.1700000e+02   1.1700000e+02   1.2700000e+02   1.2700000e+02   1.4000000e+02   1.4000000e+02   1.5600000e+02   1.5600000e+02   1.7300000e+02   1.7300000e+02   1.9500000e+02   1.9500000e+02   2.2000000e+02   2.2000000e+02   2.4800000e+02   2.4800000e+02   2.7300000e+02   2.7300000e+02   2.8600000e+02   2.8600000e+02   2.9200000e+02   2.9200000e+02   2.9100000e+02   2.9100000e+02   2.8500000e+02   2.8500000e+02   2.9100000e+02   2.9100000e+02   2.9600000e+02   2.9600000e+02   2.9400000e+02   2.9400000e+02   2.8200000e+02   2.8200000e+02   2.6700000e+02   2.6700000e+02   2.5100000e+02   2.5100000e+02   2.3300000e+02   2.3300000e+02   2.1900000e+02   2.1900000e+02   2.1500000e+02   2.1500000e+02   2.1100000e+02   2.1100000e+02   2.1000000e+02   2.1000000e+02   2.0900000e+02   2.0900000e+02   2.0800000e+02   2.0800000e+02   2.0800000e+02   2.0800000e+02   2.0700000e+02   2.0700000e+02   2.0700000e+02   2.0700000e+02   2.0700000e+02   2.0700000e+02   2.0700000e+02   2.0700000e+02   2.0900000e+02   2.0900000e+02   2.1400000e+02   2.1400000e+02   2.2300000e+02   2.2300000e+02   2.3300000e+02   2.3300000e+02   2.3400000e+02   2.3400000e+02   2.3100000e+02   2.3100000e+02   2.3300000e+02   2.3300000e+02   2.3800000e+02   2.3800000e+02   2.4600000e+02   2.4600000e+02   2.5500000e+02   2.5500000e+02   2.6100000e+02   2.6100000e+02   2.6400000e+02   2.6400000e+02   2.6700000e+02   2.6700000e+02   2.7100000e+02   2.7100000e+02   2.7500000e+02   2.7500000e+02   2.8200000e+02   2.8200000e+02   2.9400000e+02   2.9400000e+02   3.0200000e+02   3.0200000e+02   3.0100000e+02   3.0100000e+02   2.9900000e+02   2.9900000e+02   3.0100000e+02   3.0100000e+02   3.1100000e+02   3.1100000e+02   3.2700000e+02   3.2700000e+02   3.4900000e+02   3.4900000e+02   3.6300000e+02   3.6300000e+02   3.6700000e+02   3.6700000e+02   3.6300000e+02   3.6300000e+02   3.5700000e+02   3.5700000e+02   3.5400000e+02   3.5400000e+02   3.5600000e+02   3.5600000e+02   3.5400000e+02   3.5400000e+02   3.6300000e+02   3.6300000e+02   3.8700000e+02   3.8700000e+02   3.9800000e+02   3.9800000e+02   3.9500000e+02   3.9500000e+02   3.8300000e+02   3.8300000e+02   3.6900000e+02   3.6900000e+02   3.5300000e+02   3.5300000e+02   3.3900000e+02   3.3900000e+02   3.2800000e+02   3.2800000e+02   3.1900000e+02   3.1900000e+02   3.1400000e+02   3.1400000e+02   3.1500000e+02   3.1500000e+02   3.3000000e+02   3.3000000e+02   3.4600000e+02   3.4600000e+02   3.6000000e+02   3.6000000e+02   3.7000000e+02   3.7000000e+02   3.7900000e+02   3.7900000e+02   3.8500000e+02   3.8500000e+02   3.9300000e+02
4.4491959e+01   5.1323055e+01   5.1184923e+01   5.3079347e+01   5.3008011e+01   5.1972511e+01   5.1974592e+01   5.2015990e+01   5.2098468e+01   5.6223914e+01   5.6394412e+01   6.3612297e+01   6.3880104e+01   7.2200871e+01   7.2578457e+01   7.8017806e+01   7.8525404e+01   8.5110853e+01   8.5788182e+01   9.4579213e+01   9.5519043e+01   1.0500000e+02   1.0500000e+02   1.1500000e+02   1.1500000e+02   1.2400000e+02   1.2400000e+02   1.3400000e+02   1.3400000e+02   1.5000000e+02   1.5000000e+02   1.6800000e+02   1.6800000e+02   1.8700000e+02   1.8700000e+02   2.1200000e+02   2.1200000e+02   2.4100000e+02   2.4100000e+02   2.6800000e+02   2.6800000e+02   2.8400000e+02   2.8400000e+02   2.9100000e+02   2.9100000e+02   2.9600000e+02   2.9600000e+02   2.9300000e+02   2.9300000e+02   2.9000000e+02   2.9000000e+02   2.9600000e+02   2.9600000e+02   2.9800000e+02   2.9800000e+02   2.9600000e+02   2.9600000e+02   2.8300000e+02   2.8300000e+02   2.6300000e+02   2.6300000e+02   2.4600000e+02   2.4600000e+02   2.3000000e+02   2.3000000e+02   2.1900000e+02   2.1900000e+02   2.1400000e+02   2.1400000e+02   2.1100000e+02   2.1100000e+02   2.1000000e+02   2.1000000e+02   2.1000000e+02   2.1000000e+02   2.0900000e+02   2.0900000e+02   2.0900000e+02   2.0900000e+02   2.0800000e+02   2.0800000e+02   2.0700000e+02   2.0700000e+02   2.0700000e+02   2.0700000e+02   2.0700000e+02   2.0700000e+02   2.0800000e+02   2.0800000e+02   2.1200000e+02   2.1200000e+02   2.1800000e+02   2.1800000e+02   2.2300000e+02   2.2300000e+02   2.2600000e+02   2.2600000e+02   2.2900000e+02   2.2900000e+02   2.3300000e+02   2.3300000e+02   2.3800000e+02   2.3800000e+02   2.4700000e+02   2.4700000e+02   2.5900000e+02   2.5900000e+02   2.6700000e+02   2.6700000e+02   2.7300000e+02   2.7300000e+02   2.7700000e+02   2.7700000e+02   2.7900000e+02   2.7900000e+02   2.8000000e+02   2.8000000e+02   2.8300000e+02   2.8300000e+02   2.9200000e+02   2.9200000e+02   3.0400000e+02   3.0400000e+02   3.0700000e+02   3.0700000e+02   3.0300000e+02   3.0300000e+02   3.0200000e+02   3.0200000e+02   3.1000000e+02   3.1000000e+02   3.2500000e+02   3.2500000e+02   3.4400000e+02   3.4400000e+02   3.6000000e+02   3.6000000e+02   3.6800000e+02   3.6800000e+02   3.7000000e+02   3.7000000e+02   3.6100000e+02   3.6100000e+02   3.5800000e+02   3.5800000e+02   3.6400000e+02   3.6400000e+02   3.6100000e+02   3.6100000e+02   3.6400000e+02   3.6400000e+02   3.8700000e+02   3.8700000e+02   4.0200000e+02   4.0200000e+02   4.0200000e+02   4.0200000e+02   3.9200000e+02   3.9200000e+02   3.7700000e+02   3.7700000e+02   3.6100000e+02   3.6100000e+02   3.4700000e+02   3.4700000e+02   3.3300000e+02   3.3300000e+02   3.2200000e+02   3.2200000e+02   3.1600000e+02   3.1600000e+02   3.1600000e+02   3.1600000e+02   3.2500000e+02   3.2500000e+02   3.3900000e+02   3.3900000e+02   3.5500000e+02   3.5500000e+02   3.6600000e+02   3.6600000e+02   3.7400000e+02   3.7400000e+02   3.7700000e+02   3.7700000e+02   3.8200000e+02
4.4450760e+01   5.1272441e+01   5.1125733e+01   5.3012466e+01   5.2934276e+01   5.1892798e+01   5.1889595e+01   5.1926260e+01   5.2004545e+01   5.6126099e+01   5.6292924e+01   6.3507158e+01   6.3771200e+01   7.2087955e+01   7.2461162e+01   7.7895447e+01   7.8397028e+01   8.4974749e+01   8.5641257e+01   9.4415898e+01   9.5330363e+01   1.0500000e+02   1.0500000e+02   1.1500000e+02   1.1500000e+02   1.2400000e+02   1.2400000e+02   1.3400000e+02   1.3400000e+02   1.5000000e+02   1.5000000e+02   1.6800000e+02   1.6800000e+02   1.8700000e+02   1.8700000e+02   2.1200000e+02   2.1200000e+02   2.4100000e+02   2.4100000e+02   2.6800000e+02   2.6800000e+02   2.8400000e+02   2.8400000e+02   2.9100000e+02   2.9100000e+02   2.9600000e+02   2.9600000e+02   2.9300000e+02   2.9300000e+02   2.9000000e+02   2.9000000e+02   2.9600000e+02   2.9600000e+02   2.9800000e+02   2.9800000e+02   2.9600000e+02   2.9600000e+02   2.8300000e+02   2.8300000e+02   2.6300000e+02   2.6300000e+02   2.4600000e+02   2.4600000e+02   2.3000000e+02   2.3000000e+02   2.1900000e+02   2.1900000e+02   2.1400000e+02   2.1400000e+02   2.1100000e+02   2.1100000e+02   2.1000000e+02   2.1000000e+02   2.1000000e+02   2.1000000e+02   2.0900000e+02   2.0900000e+02   2.0900000e+02   2.0900000e+02   2.0800000e+02   2.0800000e+02   2.0700000e+02   2.0700000e+02   2.0700000e+02   2.0700000e+02   2.0700000e+02   2.0700000e+02   2.0800000e+02   2.0800000e+02   2.1200000e+02   2.1200000e+02   2.1800000e+02   2.1800000e+02   2.2300000e+02   2.2300000e+02   2.2600000e+02   2.2600000e+02   2.2900000e+02   2.2900000e+02   2.3300000e+02   2.3300000e+02   2.3800000e+02   2.3800000e+02   2.4700000e+02   2.4700000e+02   2.5900000e+02   2.5900000e+02   2.6700000e+02   2.6700000e+02   2.7300000e+02   2.7300000e+02   2.7700000e+02   2.7700000e+02   2.7900000e+02   2.7900000e+02   2.8000000e+02   2.8000000e+02   2.8300000e+02   2.8300000e+02   2.9200000e+02   2.9200000e+02   3.0400000e+02   3.0400000e+02   3.0700000e+02   3.0700000e+02   3.0300000e+02   3.0300000e+02   3.0200000e+02   3.0200000e+02   3.1000000e+02   3.1000000e+02   3.2500000e+02   3.2500000e+02   3.4400000e+02   3.4400000e+02   3.6000000e+02   3.6000000e+02   3.6800000e+02   3.6800000e+02   3.7000000e+02   3.7000000e+02   3.6100000e+02   3.6100000e+02   3.5800000e+02   3.5800000e+02   3.6400000e+02   3.6400000e+02   3.6100000e+02   3.6100000e+02   3.6400000e+02   3.6400000e+02   3.8700000e+02   3.8700000e+02   4.0200000e+02   4.0200000e+02   4.0200000e+02   4.0200000e+02   3.9200000e+02   3.9200000e+02   3.7700000e+02   3.7700000e+02   3.6100000e+02   3.6100000e+02   3.4700000e+02   3.4700000e+02   3.3300000e+02   3.3300000e+02   3.2200000e+02   3.2200000e+02   3.1600000e+02   3.1600000e+02   3.1600000e+02   3.1600000e+02   3.2500000e+02   3.2500000e+02   3.3900000e+02   3.3900000e+02   3.5500000e+02   3.5500000e+02   3.6600000e+02   3.6600000e+02   3.7400000e+02   3.7400000e+02   3.7700000e+02   3.7700000e+02   3.8200000e+02
4.6409214e+01   5.1219480e+01   5.1062392e+01   5.0939770e+01   5.0853169e+01   4.8804085e+01   4.8794060e+01   5.2824453e+01   5.2896791e+01   5.9012676e+01   5.9173689e+01   6.3381839e+01   6.3639411e+01   6.9948757e+01   7.0313232e+01   7.7736809e+01   7.8224516e+01   8.3783150e+01   8.4421707e+01   9.4152043e+01   9.4989743e+01   1.0695138e+02   1.0700000e+02   1.1800000e+02   1.1800000e+02   1.2900000e+02   1.2900000e+02   1.4400000e+02   1.4400000e+02   1.6600000e+02   1.6600000e+02   1.8600000e+02   1.8600000e+02   2.0400000e+02   2.0400000e+02   2.2800000e+02   2.2800000e+02   2.5200000e+02   2.5200000e+02   2.7300000e+02   2.7300000e+02   2.8400000e+02   2.8400000e+02   2.9000000e+02   2.9000000e+02   2.9200000e+02   2.9200000e+02   2.9500000e+02   2.9500000e+02   3.0300000e+02   3.0300000e+02   3.0500000e+02   3.0500000e+02   3.0300000e+02   3.0300000e+02   2.9600000e+02   2.9600000e+02   2.7700000e+02   2.7700000e+02   2.5600000e+02   2.5600000e+02   2.4100000e+02   2.4100000e+02   2.3000000e+02   2.3000000e+02   2.2000000e+02   2.2000000e+02   2.1400000e+02   2.1400000e+02   2.1100000e+02   2.1100000e+02   2.1200000e+02   2.1200000e+02   2.1200000e+02   2.1200000e+02   2.1100000e+02   2.1100000e+02   2.1000000e+02   2.1000000e+02   2.0900000e+02   2.0900000e+02   2.0800000e+02   2.0800000e+02   2.0700000e+02   2.0700000e+02   2.0700000e+02   2.0700000e+02   2.0700000e+02   2.0700000e+02   2.1000000e+02   2.1000000e+02   2.1500000e+02   2.1500000e+02   2.2000000e+02   2.2000000e+02   2.2500000e+02   2.2500000e+02   2.2900000e+02   2.2900000e+02   2.3400000e+02   2.3400000e+02   2.3800000e+02   2.3800000e+02   2.4400000e+02   2.4400000e+02   2.5500000e+02   2.5500000e+02   2.6700000e+02   2.6700000e+02   2.8000000e+02   2.8000000e+02   2.8700000e+02   2.8700000e+02   2.8900000e+02   2.8900000e+02   2.9000000e+02   2.9000000e+02   2.9000000e+02   2.9000000e+02   2.9200000e+02   2.9200000e+02   3.0000000e+02   3.0000000e+02   3.0900000e+02   3.0900000e+02   3.0900000e+02   3.0900000e+02   3.0400000e+02   3.0400000e+02   3.1000000e+02   3.1000000e+02   3.2400000e+02   3.2400000e+02   3.4300000e+02   3.4300000e+02   3.6200000e+02   3.6200000e+02   3.7500000e+02   3.7500000e+02   3.7400000e+02   3.7400000e+02   3.6800000e+02   3.6800000e+02   3.6600000e+02   3.6600000e+02   3.7800000e+02   3.7800000e+02   3.7300000e+02   3.7300000e+02   3.6600000e+02   3.6600000e+02   3.8000000e+02   3.8000000e+02   3.9600000e+02   3.9600000e+02   4.0200000e+02   4.0200000e+02   3.9700000e+02   3.9700000e+02   3.8500000e+02   3.8500000e+02   3.7000000e+02   3.7000000e+02   3.5500000e+02   3.5500000e+02   3.4100000e+02   3.4100000e+02   3.2700000e+02   3.2700000e+02   3.1800000e+02   3.1800000e+02   3.1400000e+02   3.1400000e+02   3.1600000e+02   3.1600000e+02   3.2800000e+02   3.2800000e+02   3.4400000e+02   3.4400000e+02   3.5900000e+02   3.5900000e+02   3.6700000e+02   3.6700000e+02   3.7000000e+02   3.7000000e+02   3.7300000e+02
4.6366325e+01   5.1163157e+01   5.0993955e+01   5.0860308e+01   5.0763799e+01   4.8705751e+01   4.8687493e+01   5.2710115e+01   5.2774933e+01   5.8883399e+01   5.9036799e+01   6.3236871e+01   6.3485343e+01   6.9784422e+01   7.0136580e+01   7.7544893e+01   7.8012827e+01   8.3544720e+01   8.4145297e+01   9.3819150e+01   9.4568489e+01   1.0638674e+02   1.0700000e+02   1.1800000e+02   1.1800000e+02   1.2900000e+02   1.2900000e+02   1.4400000e+02   1.4400000e+02   1.6600000e+02   1.6600000e+02   1.8600000e+02   1.8600000e+02   2.0400000e+02   2.0400000e+02   2.2800000e+02   2.2800000e+02   2.5200000e+02   2.5200000e+02   2.7300000e+02   2.7300000e+02   2.8400000e+02   2.8400000e+02   2.9000000e+02   2.9000000e+02   2.9200000e+02   2.9200000e+02   2.9500000e+02   2.9500000e+02   3.0300000e+02   3.0300000e+02   3.0500000e+02   3.0500000e+02   3.0300000e+02   3.0300000e+02   2.9600000e+02   2.9600000e+02   2.7700000e+02   2.7700000e+02   2.5600000e+02   2.5600000e+02   2.4100000e+02   2.4100000e+02   2.3000000e+02   2.3000000e+02   2.2000000e+02   2.2000000e+02   2.1400000e+02   2.1400000e+02   2.1100000e+02   2.1100000e+02   2.1200000e+02   2.1200000e+02   2.1200000e+02   2.1200000e+02   2.1100000e+02   2.1100000e+02   2.1000000e+02   2.1000000e+02   2.0900000e+02   2.0900000e+02   2.0800000e+02   2.0800000e+02   2.0700000e+02   2.0700000e+02   2.0700000e+02   2.0700000e+02   2.0700000e+02   2.0700000e+02   2.1000000e+02   2.1000000e+02   2.1500000e+02   2.1500000e+02   2.2000000e+02   2.2000000e+02   2.2500000e+02   2.2500000e+02   2.2900000e+02   2.2900000e+02   2.3400000e+02   2.3400000e+02   2.3800000e+02   2.3800000e+02   2.4400000e+02   2.4400000e+02   2.5500000e+02   2.5500000e+02   2.6700000e+02   2.6700000e+02   2.8000000e+02   2.8000000e+02   2.8700000e+02   2.8700000e+02   2.8900000e+02   2.8900000e+02   2.9000000e+02   2.9000000e+02   2.9000000e+02   2.9000000e+02   2.9200000e+02   2.9200000e+02   3.0000000e+02   3.0000000e+02   3.0900000e+02   3.0900000e+02   3.0900000e+02   3.0900000e+02   3.0400000e+02   3.0400000e+02   3.1000000e+02   3.1000000e+02   3.2400000e+02   3.2400000e+02   3.4300000e+02   3.4300000e+02   3.6200000e+02   3.6200000e+02   3.7500000e+02   3.7500000e+02   3.7400000e+02   3.7400000e+02   3.6800000e+02   3.6800000e+02   3.6600000e+02   3.6600000e+02   3.7800000e+02   3.7800000e+02   3.7300000e+02   3.7300000e+02   3.6600000e+02   3.6600000e+02   3.8000000e+02   3.8000000e+02   3.9600000e+02   3.9600000e+02   4.0200000e+02   4.0200000e+02   3.9700000e+02   3.9700000e+02   3.8500000e+02   3.8500000e+02   3.7000000e+02   3.7000000e+02   3.5500000e+02   3.5500000e+02   3.4100000e+02   3.4100000e+02   3.2700000e+02   3.2700000e+02   3.1800000e+02   3.1800000e+02   3.1400000e+02   3.1400000e+02   3.1600000e+02   3.1600000e+02   3.2800000e+02   3.2800000e+02   3.4400000e+02   3.4400000e+02   3.5900000e+02   3.5900000e+02   3.6700000e+02   3.6700000e+02   3.7000000e+02   3.7000000e+02   3.7300000e+02
4.3320922e+01   4.6102259e+01   4.5919167e+01   4.7773085e+01   4.7665335e+01   4.9597039e+01   4.9569166e+01   5.4582793e+01   5.4638826e+01   5.6738376e+01   5.6882585e+01   5.9072808e+01   5.9310303e+01   6.6596798e+01   6.6934002e+01   7.5323972e+01   7.5768633e+01   8.1270091e+01   8.1829776e+01   9.0447318e+01   9.1118248e+01   1.0182928e+02   1.0255111e+02   1.1400000e+02   1.1400000e+02   1.2600000e+02   1.2600000e+02   1.4100000e+02   1.4100000e+02   1.6500000e+02   1.6500000e+02   1.9200000e+02   1.9200000e+02   2.1200000e+02   2.1200000e+02   2.3000000e+02   2.3000000e+02   2.5000000e+02   2.5000000e+02   2.7000000e+02   2.7000000e+02   2.8200000e+02   2.8200000e+02   2.8700000e+02   2.8700000e+02   2.9100000e+02   2.9100000e+02   3.0000000e+02   3.0000000e+02   3.0700000e+02   3.0700000e+02   3.0600000e+02   3.0600000e+02   3.0100000e+02   3.0100000e+02   2.9000000e+02   2.9000000e+02   2.7100000e+02   2.7100000e+02   2.5300000e+02   2.5300000e+02   2.4000000e+02   2.4000000e+02   2.2700000e+02   2.2700000e+02   2.1900000e+02   2.1900000e+02   2.1600000e+02   2.1600000e+02   2.1400000e+02   2.1400000e+02   2.1500000e+02   2.1500000e+02   2.1500000e+02   2.1500000e+02   2.1400000e+02   2.1400000e+02   2.1300000e+02   2.1300000e+02   2.1200000e+02   2.1200000e+02   2.1000000e+02   2.1000000e+02   2.0800000e+02   2.0800000e+02   2.0700000e+02   2.0700000e+02   2.0700000e+02   2.0700000e+02   2.0900000e+02   2.0900000e+02   2.1500000e+02   2.1500000e+02   2.2200000e+02   2.2200000e+02   2.2500000e+02   2.2500000e+02   2.2900000e+02   2.2900000e+02   2.3300000e+02   2.3300000e+02   2.3700000e+02   2.3700000e+02   2.4100000e+02   2.4100000e+02   2.4800000e+02   2.4800000e+02   2.6100000e+02   2.6100000e+02   2.7800000e+02   2.7800000e+02   2.9300000e+02   2.9300000e+02   2.9900000e+02   2.9900000e+02   2.9800000e+02   2.9800000e+02   2.9900000e+02   2.9900000e+02   3.0100000e+02   3.0100000e+02   3.0000000e+02   3.0000000e+02   3.0900000e+02   3.0900000e+02   3.1400000e+02   3.1400000e+02   3.0900000e+02   3.0900000e+02   3.1500000e+02   3.1500000e+02   3.2500000e+02   3.2500000e+02   3.4400000e+02   3.4400000e+02   3.6500000e+02   3.6500000e+02   3.8100000e+02   3.8100000e+02   3.8200000e+02   3.8200000e+02   3.7600000e+02   3.7600000e+02   3.7300000e+02   3.7300000e+02   3.8600000e+02   3.8600000e+02   3.8200000e+02   3.8200000e+02   3.6900000e+02   3.6900000e+02   3.7000000e+02   3.7000000e+02   3.9000000e+02   3.9000000e+02   4.0000000e+02   4.0000000e+02   4.0300000e+02   4.0300000e+02   3.9500000e+02   3.9500000e+02   3.8200000e+02   3.8200000e+02   3.6400000e+02   3.6400000e+02   3.4900000e+02   3.4900000e+02   3.3300000e+02   3.3300000e+02   3.2100000e+02   3.2100000e+02   3.1600000e+02   3.1600000e+02   3.1300000e+02   3.1300000e+02   3.1400000e+02   3.1400000e+02   3.2400000e+02   3.2400000e+02   3.4200000e+02   3.4200000e+02   3.5600000e+02   3.5600000e+02   3.6000000e+02   3.6000000e+02   3.6400000e+02
